ply
format ascii 1.0
element vertex 772
property float x
property float y
property float z
end_header
0.04129376529050271 -0.011621591918611283 0.12039273571624273
0.041325080378220996 -0.010961151060057288 0.12100561534387162
0.041588080737091096 -0.010450131740545515 0.11980992954033273
0.04161939591326748 -0.009789690939041085 0.12042280847744624
0.041640837997948696 -0.00912288258832709 0.12111275813458941
0.041903838482723915 -0.008611863478110864 0.11991707118687024
0.04198883582854952 -0.00798604396560974 0.12011090027056423
0.042039616907079844 -0.00733815724402741 0.12057182599750282
0.042040419636675985 -0.006658037822544013 0.12142288923184456
0.04227752002149786 -0.0061303151324168925 0.12042938151823222
0.04232830107054215 -0.0054824283918180425 0.1208903074753426
0.04251825921785948 -0.004924301592021657 0.12026479885896665
0.04258367214901591 -0.004285851438968532 0.12061150643676716
0.04264908497932923 -0.003647401733258909 0.1209582141563683
0.04274885119936197 -0.0030311071590630105 0.12103675548259935
0.042789931595194564 -0.0023769641444878263 0.12157340600334386
0.043053006297045754 -0.0011853555146375898 0.1212344694763712
0.04311352313190638 -0.0005437477062005969 0.12161939662015539
0.03741855912921458 -0.0277797608372177 0.1227031508197802
0.03761109810498854 -0.027223299524312808 0.12205749462922456
0.03779390989543487 -0.026660562776465068 0.12148777269703394
0.03795234833658097 -0.026082108894326377 0.12110830972543302
0.038096098572581776 -0.02549418107528299 0.12084350608886901
0.03823984892652671 -0.024906253332305686 0.12057870153161784
0.03836883028832039 -0.024308800574957073 0.12042918565251677
0.03848788907029818 -0.023704948415782065 0.12035712672505436
0.038611901298899964 -0.023104290899125503 0.12024640054746973
0.03873591382236205 -0.02250363357263415 0.12013567206816717
0.0388549724569097 -0.021899781318376537 0.12006361429156373
0.0389642004832848 -0.021289590002626146 0.12006829423317344
0.03909318184507847 -0.020692137245277534 0.11991877835407239
0.03922216326584421 -0.020094684525961963 0.11976926201462774
0.03930844057074252 -0.019469690501648335 0.11995309957093335
0.03942256858085335 -0.01886265832366002 0.1199195308914839
0.03937742781702392 -0.01747227128631906 0.12198656447132918
0.03963148858099752 -0.01695548690894265 0.12086066182695228
0.03982892105358062 -0.01640218055016507 0.12017680765313207
0.03998735966692689 -0.015823725754322854 0.11979734462810165
0.04012621389509 -0.015232640336945161 0.11957075986700595
0.04027975632604039 -0.014651028342570838 0.11922951643467396
0.040408737864750244 -0.014053575699321353 0.11907999917454214
0.04052779664672805 -0.013449723540146345 0.11900794024707972
0.0406518088458438 -0.012849066004473258 0.11889721429966689
0.04077582117882569 -0.012248408811325183 0.11878648698458066
0.040894879950040985 -0.011644556709256643 0.11871442806045761
0.04079222425830278 -0.010897713638108137 0.12037310105814868
0.040780700169393606 -0.01020964436937876 0.12132038888342841
0.04093821502876775 -0.008949956877506252 0.12180546600653072
0.04116092117295661 -0.00841295060653883 0.12092432193455807
0.04132425585311263 -0.007837653447063964 0.12050663957371577
0.04129000287762776 -0.007134925435145037 0.1216313522120941
0.041508738273951386 -0.005914721424466217 0.12163853343914285
0.04172622413650952 -0.005374348164017186 0.12079813988883893
0.041874870557264215 -0.0047895780574072335 0.12049511599577588
0.04183578751944755 -0.0040837349776046295 0.12165753273040611
0.04201375399561562 -0.0035178748625272504 0.12112563201696867
0.04217704360829258 -0.0022619115090307764 0.1215656309049636
0.042533918253167866 -0.00045016045445641804 0.1213518092403685
0.036646858296990624 -0.02824292266771297 0.12307775875923346
0.03703684857557113 -0.027813802219250807 0.12089077453903334
0.03714158363865147 -0.027200713242000296 0.12093052713786463
0.037325871204895195 -0.026638928271060215 0.12034928510740432
0.037430606267975536 -0.026025839293809704 0.12038903770623563
0.03751560355482909 -0.025400019743275538 0.1205828672502732
0.037605496908492395 -0.02477735782910872 0.1207384774584989
0.037695390291641734 -0.024154695933958418 0.12089408743655279
0.03775590712650237 -0.023513088125521425 0.12127901458033698
0.03807529833018803 -0.02303843700973959 0.11964313465190311
0.03815539952074579 -0.022409459803821554 0.11987518376192437
0.038279780531123755 -0.021809040126801033 0.11976157882571718
0.03838946918825823 -0.021199145887151574 0.11976266302356728
0.03850898877791159 -0.020595590918176622 0.1196870069713145
0.038638185151835425 -0.019998276829303746 0.11953581267949451
0.03871828634239319 -0.019369299623385704 0.11976786178951576
0.03887778102738698 -0.018791525923282246 0.11938015493152576
0.038997300558068285 -0.01818797091627425 0.11930449933961658
0.039111920041325784 -0.01758125570566849 0.1192670941567114
0.03921168614577241 -0.01696496156930783 0.11934563573982898
0.039390349521899584 -0.016399550395817884 0.11880829557985045
0.03951954607273961 -0.015802236421044138 0.1186570999069997
0.039639065485476785 -0.015198681337970057 0.11858144523577768
0.039781535676304804 -0.014609928487590927 0.1183266331533168
0.03984694863694725 -0.013971478353554324 0.11867334050094551
0.03994671482749397 -0.013355183760341904 0.11875188205734835
0.040031712114347515 -0.012729364209807737 0.11894571160138594
0.04003251480089362 -0.012049245016750221 0.11979677484908505
0.040097927721287535 -0.011410794920803567 0.1201434824302249
0.04016823669772869 -0.01077550251833073 0.1204519706788922
0.040204445139541994 -0.010118217546624094 0.12102665214651422
0.04047227581137513 -0.009610313456636429 0.11979326029026317
0.040552376991170376 -0.008981336307824862 0.12002530940362377
0.04061778987927676 -0.008342886383197617 0.12037201699478164
0.04066372587234304 -0.0076918749048138415 0.12087076409050099
0.04076349212186182 -0.007075580349634465 0.12094930518656025
0.04078988694152179 -0.0064119661184276625 0.12160059322945077
0.04105288722107381 -0.005900947132046447 0.12040490756103384
0.04114278060422314 -0.005278285236896149 0.12056051753908774
0.04121308960218933 -0.0046429927202103725 0.12086900578107636
0.04123453185980622 -0.003976184416980776 0.12155895416893531
0.041487002960109536 -0.0027777376841136114 0.12130279009263156
0.041557311972818735 -0.002142445176936096 0.1216112782195343
0.03621349956825438 -0.027563016270137554 0.12252588560358509
0.03643098546501455 -0.027022644056507696 0.1216854904955081
0.036613797019572646 -0.026459907156527785 0.12111577040469182
0.036772235372260646 -0.025881453217339527 0.12073630812360628
0.036896247895722725 -0.02528079589084818 0.1206255796443037
0.037035102153371864 -0.02468971049248701 0.1203989946530362
0.03698096963754436 -0.023974161503651073 0.12167888957500317
0.037173508815004516 -0.02341769929605918 0.12103323310084625
0.03734173959145633 -0.022845559791968183 0.12057733117402027
0.03749528210850681 -0.0222639473407421 0.12023608771497353
0.03763413633666992 -0.021672861923364407 0.12000950295387783
0.03775319494644755 -0.02106901067789292 0.11993744407984493
0.03767303702860355 -0.020336677041486756 0.12142049668285596
0.037921910475148875 -0.019816546678149253 0.12033508755998286
0.03806566082909381 -0.01922861893517195 0.12007028300273168
0.03824362730290387 -0.018662758306193246 0.11953838295309488
0.03822091055970815 -0.017967470394263517 0.120573042258258
0.03840857799633324 -0.017407866238934623 0.11996541522818324
0.0385621203977976 -0.016826254225543777 0.11962417202602303
0.03870097465544674 -0.016235168827182605 0.11939758703475555
0.038839828883609845 -0.015644083409804915 0.11917100227365984
0.03896384114169766 -0.01504342591216487 0.11906027586590341
0.039087853608545685 -0.014442769061541802 0.1189495471831438
0.039216834970339357 -0.013845316304193188 0.11880003130404274
0.03932606299199845 -0.013235123960640149 0.11880471257325372
0.03945007554494656 -0.012634466653165321 0.11869398386377936
0.03956420333509117 -0.012027434589503755 0.11866041657871804
0.03967833139341155 -0.011420402506654952 0.11862684744226434
0.03955752094665075 -0.010661850830022274 0.12042723882447744
0.03974033251388587 -0.010099115091074477 0.11985751718256678
0.0398308429591443 -0.009476851287901824 0.1200083101320029
0.03996969720603093 -0.008885765946647122 0.11978172514407474
0.03992066036387171 -0.00817350358347238 0.12102184225037274
0.04010347189365978 -0.007610767692278601 0.120452121062127
0.04025211831441447 -0.007025997585668647 0.12014909716906393
0.04021303529134082 -0.006320154515374304 0.12131151378860827
0.040395846587598656 -0.005757418985949676 0.12074179377793623
0.04055428520094492 -0.005178964190107462 0.12036233075290581
0.0405001526703744 -0.004463415191763265 0.12164222578995869
0.04069269192154963 -0.003906953031712675 0.12099656874037228
0.04085598159555665 -0.0026509902301505707 0.12143656650422296
0.03542455147992211 -0.028015054771389034 0.12303512787272579
0.035673073853707715 -0.027494696964788203 0.12195246056037151
0.036007500106708584 -0.027029743477255015 0.1201992137860926
0.03612701969164594 -0.02642618748047741 0.1201235590614411
0.03623175490215643 -0.02581309859830951 0.12016331050941342
0.036331521122189174 -0.025196804024113614 0.12024185183564448
0.03641162231274693 -0.024567826818195575 0.12047390094566574
0.036396703032218855 -0.023877567749345213 0.12144769224069853
0.03668473952884069 -0.02338269493987347 0.12005657124328396
0.036784505748873424 -0.02276640036567757 0.12013511256951502
0.0368597108431354 -0.022134265504375666 0.12040538124551996
0.03691049183320763 -0.02148637872574377 0.12086630766297392
0.036921753277074636 -0.020813005501793987 0.12163572751943862
0.037194516467232513 -0.020308282428873205 0.120363831943446
0.03716920330218635 -0.01961131999811469 0.12141875925606636
0.03743703402503054 -0.019103415812930603 0.12018536716296482
0.03750244686772887 -0.018464965602827916 0.12053207543128071
0.03779567081210811 -0.017973438350990283 0.1191004605403899
0.03790535964144276 -0.017363543197637298 0.11910154468481052
0.03805626891094943 -0.01678023298984824 0.11878085605399058
0.03816595791720026 -0.016170337950594384 0.11878193881738042
0.03827069315248078 -0.015557248059640351 0.11882169136278221
0.03838038209975954 -0.014947352982353454 0.11882277458651565
0.03848511713099585 -0.014334263472185093 0.11886252807931937
0.03858985236627637 -0.01372117358123106 0.11890228062472116
0.038679745690453654 -0.013098511648047716 0.11905789106311866
0.03875984691049744 -0.012469534461146202 0.11928993994296812
0.03884484412481492 -0.011843715120021393 0.11948376973053487
0.03889562525155479 -0.011195828493578575 0.11994469500046921
0.03894156140001223 -0.010544817243506869 0.12044344072183648
0.038967956124432115 -0.009881203078971702 0.12109472934683517
0.039235786737293186 -0.009373298950950995 0.11986133795092771
0.0393011996576871 -0.008734848855004342 0.12020804553206756
0.03935198069316738 -0.008086962361847892 0.12066897127236352
0.03936324227974852 -0.0074135882051780625 0.1214383913055705
0.03963107292887764 -0.006905683972452675 0.12020499978789846
0.03967700915783216 -0.006254672646201071 0.12070374504224346
0.0396984512556339 -0.005587864752281932 0.12139369403224663
0.039971549261579156 -0.004402720484695984 0.1209765142867884
0.040017485416818606 -0.003751709110903076 0.12147526011656287
0.040285804476822944 -0.002563483254475026 0.12109538480075172
0.035046744026118064 -0.027370975239090215 0.12204961422279734
0.03524909664557037 -0.026820843071472547 0.1213273514502945
0.03544163605420276 -0.026264379988210178 0.1206816944623645
0.03560007446586282 -0.025685926087054962 0.12030223172093536
0.03574872088661751 -0.02510115598044501 0.11999920782787231
0.03587273311521929 -0.024500498463788444 0.11988848165028768
0.036011587372868435 -0.023909413065427272 0.11966189665902016
0.03594190460304097 -0.023183835200462875 0.12106317889098048
0.03613933734099835 -0.02263052901283399 0.12037932264561413
0.03630267202115437 -0.022055231853359124 0.11996164028477183
0.036446422345613266 -0.021467304091365304 0.11969683595769245
0.03639738531533186 -0.02075504237543516 0.12093695356440616
0.03662009132565458 -0.02021803576194273 0.1200558108601069
0.03674410373117254 -0.019617378359385294 0.1199450833014915
0.036882957959335654 -0.019026292942007597 0.11971849854039578
0.03704629266897771 -0.018450995801549252 0.11930081594938169
0.0370022770164172 -0.01774197151440074 0.12050173731776198
0.03720462985229872 -0.017191838461604332 0.11977947414657196
0.03736796444635466 -0.016616541758981227 0.1193617918124444
0.03751171477081355 -0.016028613996987403 0.11909698748536501
0.03765056905794873 -0.015437528617642755 0.11887040226392573
0.03778942328611184 -0.014846443200265062 0.11864381750283003
0.03795275790965381 -0.014271146516658477 0.11822613493853067
0.03806198604925702 -0.013660954249171523 0.11823081528705448
0.03818599830734483 -0.01306029675153148 0.11812008887929805
0.03807500145207232 -0.012308074058431782 0.11984387424831475
0.03823343999288252 -0.011729619471998926 0.11946441146681348
0.0381741512737268 -0.011010745140148279 0.12078455630349483
0.038361818600368774 -0.010451141041982758 0.12017692997061415
0.038515361095894235 -0.009869528704969616 0.11983568651824608
0.03847627796283747 -0.009163685691838648 0.1209981038349845
0.03866881704107703 -0.00860722348430366 0.1203524480546823
0.03881746341878167 -0.008022453606119587 0.1200494241749766
0.03877344770724911 -0.007313429280938031 0.12125034600370048
0.03895625932549527 -0.006750693446793816 0.12068062412493935
0.0391342258582774 -0.006184832855848153 0.12014872361495896
0.03910927040536119 -0.005488101637923138 0.12120085793466462
0.03929693760609803 -0.004928497330462071 0.12059323274596422
0.039445333441745126 -0.0036629284846747393 0.12114949439913977
0.039660534834182 -0.0024404452773205583 0.12118426252125275
0.034560705125147875 -0.02733773137725446 0.12105164583733652
0.03462611788410413 -0.02669928213790486 0.12139835346856652
0.03494027047705447 -0.026221251443021232 0.11980336810927204
0.03504995916367497 -0.025611357222388293 0.11980445207695035
0.035134956450528526 -0.024985537671854123 0.11999828162098794
0.035210161544790494 -0.02435340281055222 0.12026855029699288
0.03530992776482324 -0.02373710823635632 0.12034709162322392
0.03534124281509449 -0.023076667225556343 0.12095997170451771
0.035634466759473724 -0.022585139973718707 0.1195283568136269
0.03571456795003149 -0.02195616276780067 0.11976040592364817
0.03577508478489212 -0.021314554959363678 0.12014533306743234
0.03581616478737931 -0.020660412715868104 0.1206819853678948
0.036099044885033245 -0.02016221437315953 0.11933111589305782
0.03618893826818258 -0.01953955247800923 0.11948672587111173
0.0362936735034631 -0.018926462587055194 0.11952647841651351
0.03635908643461952 -0.01828801243400207 0.11987318599431401
0.03641960332845222 -0.01764640466359812 0.1202581126777546
0.03670763964815787 -0.017151531740027245 0.1188669930613708
0.03680740569363244 -0.016535237565633545 0.11894553510483198
0.036892402921513925 -0.015909417977066333 0.11913936510921315
0.03692371806024327 -0.015248977023315919 0.11975224449999156
0.036964798411846814 -0.014594833980215952 0.12028889536599376
0.03723756156013365 -0.014090111392671712 0.1190169994714582
0.03732745494328299 -0.013467449497521412 0.1191726094495121
0.03740755613384075 -0.012838472291603377 0.11940465855953336
0.037472969064997176 -0.012200022138550252 0.11975136613733386
0.037518905162443564 -0.011549010983674966 0.12025011209555161
0.037746403408502195 -0.011015095106483687 0.11933156049366507
0.03781671241442939 -0.010379802723027371 0.11964004851216058
0.037796586616643556 -0.009686185926082867 0.12065448239832698
0.037832795043713834 -0.00902890094486797 0.12122916398103488
0.038115675086376206 -0.00853070263074108 0.11987829485479493
0.038181087944996556 -0.007892252687097315 0.1202250026761246
0.03823186902352688 -0.0072443659655149865 0.12068592840306319
0.03826807747212218 -0.0065870808700871485 0.12126060997909241
0.03855095752554706 -0.00608888249885379 0.11990974084951311
0.03861147427430761 -0.005447275147268556 0.12029466802001204
0.038657410488519124 -0.004796263811508694 0.12079341338944292
0.03874240776062966 -0.004170444251466265 0.12098724304856641
0.039072153105940734 -0.0030218342499544553 0.12012786614157282
0.03378963089774736 -0.027120659172779976 0.12227869315485596
0.033996936211929875 -0.026573721162759453 0.12151776900161163
0.0341992892494976 -0.026023587215276044 0.12079550554682032
0.03437725561007955 -0.025457727538033905 0.12026360509026943
0.034506237001359255 -0.024860274799701813 0.12011408898099658
0.034669571681515285 -0.024284977640226947 0.11969640662015428
0.034610282884663994 -0.023566103194220263 0.12101655214401165
0.03480771553416328 -0.023012796949541815 0.12033269658916068
0.034985681831057165 -0.02244693620646398 0.11980079792055463
0.03513922434810765 -0.021865323755237896 0.1194595544615079
0.035268205886817505 -0.021267871111988412 0.11931003720137608
0.03541685213537202 -0.02068310191908198 0.11900701336174252
0.035545833497165696 -0.020085649161733367 0.11885749748264146
0.03566984593216968 -0.01948499177819245 0.11874676969385427
0.035798827411907486 -0.01888753909690992 0.11859725289406603
0.03594257779533844 -0.01829961137294914 0.11833244810664305
0.036056705628533095 -0.017692579080861696 0.11829888080822437
0.03606614573035909 -0.017018030188076343 0.1190825195888951
0.03592848094535016 -0.01624860897228487 0.12101447764870954
0.0361669170449693 -0.01572174721668633 0.12001054381664776
0.03634488351877937 -0.015155886587707623 0.11947864376701096
0.03650821819893539 -0.014580589428232756 0.11906096140616866
0.03663719965154516 -0.01398313724183503 0.1189114441727516
0.03678094997600406 -0.013395209479841208 0.11864663984567221
0.03667490559431655 -0.01264618080171474 0.12033176556023585
0.03685287215658471 -0.0120803202297856 0.11979986482008367
0.036996622437993565 -0.011492392696217659 0.11953506050636166
0.037105850625806326 -0.010882200523870216 0.11953974039788123
0.037229862832883084 -0.010281543121426592 0.11942901422697529
0.037170574014506776 -0.009562668789632849 0.12074915975751135
0.0373582411937186 -0.009003064596384723 0.12014153457548962
0.03749709544060523 -0.008411979255130021 0.11991494958756146
0.03764574181830987 -0.007827209376945948 0.11961192570785578
0.037565584121611095 -0.007094875883163695 0.12109497658457836
0.03774839565139917 -0.006532139991969914 0.1205252553963326
0.037916626442594 -0.005960000497387177 0.12006935335442073
0.037867589395211565 -0.005247738258047446 0.12130947174002096
0.03805525683183665 -0.0046881341027185525 0.1207018447099462
0.03823972261827886 -0.003445827968169572 0.12097653962481482
0.038439075593981256 -0.002213123589620191 0.12113502255409803
0.033007592661495624 -0.027577154067514282 0.12273399621782613
0.03318460065770118 -0.02701067425968077 0.12220957946011336
0.033394498811181506 -0.026465408457981652 0.12142841526528472
0.03343557939395728 -0.025811264539211204 0.12196506561751383
0.03382902995603874 -0.02538437779221737 0.11975106739161685
0.033918923339188084 -0.024761715897067074 0.11990667736967076
0.03399902452974584 -0.024132738691149035 0.12013872647969201
0.03402541936414884 -0.023469124469450497 0.12079001440749663
0.03403668089175792 -0.022795750274747624 0.1215594349010472
0.03425717637864675 -0.02225731802115326 0.12069554783085644
0.034613537343559514 -0.021806509934292145 0.11877107712657624
0.03472322617289416 -0.021196614780939163 0.11877216127099684
0.03481311938384333 -0.020573953799492384 0.11892777130248025
0.03487853228551372 -0.01993550362742274 0.11927447911045254
0.03492446842601016 -0.019284492244121574 0.1197732250553129
0.03524385960020979 -0.018809841109323214 0.11813734535705082
0.03533375304233119 -0.01818717925220596 0.11829295487476114
0.035471990009944 -0.01759569574296443 0.11807118852999265
0.035571756259462774 -0.016979401187785056 0.11814972962605191
0.03565675346021623 -0.016353582094102648 0.11834355919680424
0.03577627299089753 -0.015750027087094654 0.11826790360489504
0.03584658204783578 -0.01511473460844192 0.11857639138654007
0.035936475372013055 -0.014492072675258578 0.11873200182493757
0.03600678431336518 -0.013856780634441084 0.11904048986346913
0.03607709334081739 -0.01322148813677183 0.11934897787528595
0.036127874330889626 -0.012573601358139935 0.11980990429273992
0.036159189381160875 -0.011913160347339958 0.12042278437403371
0.036436973748532456 -0.01141167585483847 0.11911169251140866
0.0365170749283277 -0.0107826987060269 0.11934374162476927
0.03656785610327712 -0.010134812174723598 0.11980466643769935
0.036604064456632335 -0.009477527145967397 0.12037934859583675
0.036640272898445625 -0.008820242174260761 0.12095403006345877
0.03691303615155607 -0.008315519205987753 0.11968213391537602
0.036944351306207435 -0.007655078518696264 0.12029501285916822
0.036975666268020596 -0.006994637450846721 0.12090789363097738
0.03701674667122469 -0.006340494441025668 0.12144454409417894
0.03729453100055974 -0.0058390096678028625 0.12013345285116894
0.03734531199298997 -0.005191123403072295 0.12059437860482228
0.03737170681264994 -0.004527509171865492 0.1212456666477128
0.037644804833338215 -0.0033423649137878046 0.12082848678716868
0.032546680343527326 -0.02687947744359378 0.1223972099718546
0.03277462505304346 -0.026345850466252707 0.12147517200790056
0.0329622924554665 -0.025786245264104637 0.12086754653559886
0.0331402587570764 -0.025220385548829456 0.12033564653939156
0.033298697340936635 -0.02464193073397072 0.11995618374453294
0.033447343761691326 -0.024057160627360765 0.11965315985146988
0.033615574567629175 -0.02348502114228629 0.11919725769447209
0.03368907790899579 -0.021490514506918357 0.12119546936787427
0.03395841197707534 -0.020983579879089657 0.11995034196587605
0.034160764581784624 -0.02043344770196373 0.11922807930845912
0.0343143070988351 -0.019851835250737648 0.11888683584941238
0.034467849615885573 -0.01927022279951156 0.11854559239036563
0.03460670384404869 -0.018679137382133865 0.11831900762926992
0.03473568526481442 -0.018081684662818294 0.11816949128982528
0.034864666567636045 -0.01748423186743664 0.1180199758710678
0.034983725231669725 -0.016880379632195543 0.11794791786429258
0.03511270662530744 -0.016282927407764776 0.11779840109121908
0.03523176540728523 -0.015679075248589767 0.11772634216375669
0.03534099331100021 -0.01506888282897064 0.11773102435365485
0.035250349895543175 -0.014329786746323615 0.11929592811801615
0.03548354161223914 -0.01379954322608902 0.11833293197736341
0.03539289807883799 -0.013060447067375906 0.1198978366624119
0.03555623281796608 -0.012485149945934084 0.11948015384122601
0.03550719603359991 -0.011772887363841722 0.12072027081908074
0.03574563195748188 -0.011246025751094717 0.11971633803614941
0.03591386272317118 -0.010673886304110189 0.11926043611266278
0.035864825902536986 -0.009961623826722506 0.12050055321228209
0.03605249308174881 -0.00940201963347438 0.11989292803026036
0.03621582774037981 -0.008826722588212453 0.11947524567609674
0.03615653900648108 -0.008107848246853545 0.12079539062786399
0.03633935050796212 -0.0075451125935939055 0.12022566933788971
0.036487996928716813 -0.006960342486983952 0.11992264544482664
0.036438960114864624 -0.00624807988587507 0.12116276265285317
0.03662662733034448 -0.005688475587922262 0.12055513734906687
0.03679520090091277 -0.004435920547036525 0.12095388832750445
0.03214218881608798 -0.02621819051400744 0.12161999309792196
0.03241463482030603 -0.025713261852560815 0.12035057480751438
0.032489839742367826 -0.02508112790496243 0.12062084353694881
0.03253577597132235 -0.024430116578710828 0.1211195887912938
0.03280853914673722 -0.023925393496281786 0.11984769333038708
0.03281980074806139 -0.023252019349120218 0.12061711324850817
0.03281535663029285 -0.022568516061219884 0.12150913405740435
0.03309958024415697 -0.022071184196811186 0.1201477769198779
0.033507388257154117 -0.021653556022793605 0.11782170385115533
0.03350819101623628 -0.02097343662032673 0.11867276685532527
0.033558971834108345 -0.02032555075539836 0.11913369332620874
0.0336390730246661 -0.01969657354948032 0.11936574243623
0.033955701770666855 -0.019220140832836394 0.11775142661262313
0.034060437005947374 -0.018607050941882357 0.11779117915802491
0.03416020325546615 -0.017990756386702982 0.11786972025408417
0.034264938313830484 -0.01737766638164982 0.11790947418051673
0.034384457903483844 -0.016774111412674868 0.11783381812826395
0.034484224066902526 -0.016157817314347254 0.11791235925103795
0.034574117450051865 -0.015535155419196953 0.11806796922909185
0.03465421864060963 -0.014906178213278914 0.11830001833911312
0.034704999748625974 -0.014258291510713108 0.11876094383587991
0.034750935685078206 -0.013607280508197614 0.11925969072814219
0.03479201615462587 -0.012953137541163734 0.11979634067345721
0.03479281875153488 -0.012273018034105989 0.12064740494357203
0.03506558214809497 -0.01176829509430086 0.11937550775637687
0.03510179056838325 -0.011111010236807163 0.11995018923067756
0.03512818530356564 -0.010447396015165526 0.12060147785233692
0.03540094860488563 -0.009942673142032031 0.11932958124724993
0.03542734335879154 -0.009279058996513387 0.11998086964207684
0.03546842351195388 -0.008624915953527231 0.12051752189578847
0.03546922623078752 -0.007944796589150305 0.12136858513346956
0.035697590036452884 -0.007411439132287452 0.12044327661842813
0.03570885156406197 -0.00673806493758458 0.1212126971119787
0.035991731676458916 -0.006239866604384264 0.11986182752205582
0.03606204070391113 -0.0056045741067150085 0.12017031553387265
0.03609335574179737 -0.004944133600308096 0.1207831950664517
0.03638690716923171 -0.003091543296177247 0.12106368269257964
0.03152986435144677 -0.02610350131280355 0.12160781907130831
0.03172240376007916 -0.02554703822954118 0.12096216208337832
0.03190037012066112 -0.02498117855229904 0.12043026162682742
0.03206860083814088 -0.024409039010174997 0.11997436016034503
0.03222214335519135 -0.023827426558948914 0.1196331167012983
0.03238547800586135 -0.023252129380457526 0.11921543457062776
0.03252922838929231 -0.022664201656496748 0.1189506297832048
0.03268277084737072 -0.02208258916723762 0.11860938678450164
0.032811752268136464 -0.02148513644792205 0.118459870445057
0.03292588027824729 -0.020878104269933733 0.11842630176560755
0.033054861644756975 -0.02028065254038777 0.11827678455890522
0.03319861196921588 -0.019692724778393948 0.11801198023182585
0.033337466197378984 -0.019101639361016255 0.11778539547073014
0.03345652480244061 -0.018497787087742114 0.11771333792429849
0.033470421127968074 -0.017826112161870928 0.11846219084180246
0.0333294862809112 -0.017054581461896152 0.12041967607767136
0.033603752831047454 -0.016550827955839013 0.11913604507769616
0.03379141991619818 -0.015991224086213188 0.11852842014588229
0.03394985852954445 -0.01541276929037097 0.11814895712085188
0.03409360885400335 -0.014824841528377148 0.1178841527937725
0.034029132786310826 -0.014102621638835484 0.11924479083007536
0.03421194428897087 -0.013539886242526507 0.11867506920820076
0.034177691313486 -0.01283715823060758 0.11979978184657908
0.03436050293173216 -0.012274422396463366 0.11923005996781794
0.034514045448782636 -0.011692809945237281 0.1188888165087712
0.03447002966471399 -0.010983785829465083 0.12008973858102424
0.03465284112476749 -0.01042104995734473 0.11952001785646142
0.034618588275187746 -0.009718322154721348 0.12064472935065947
0.034757442496568855 -0.009127236861064859 0.12041814448115655
0.03492077716994287 -0.008551939825311192 0.12000046201190703
0.03488652422792453 -0.007849211899023517 0.12112517430836701
0.03513223217533866 -0.006646403127672113 0.12092180460791802
0.03531504371986975 -0.006083667245986593 0.12035208330458637
0.0354635671439263 -0.004818181198589687 0.12090734834061037
0.036080409564781354 -0.0018128182666903685 0.12037884257204773
0.03071050978048328 -0.026535927612324834 0.12235442088950343
0.030922015748202962 -0.025991698743517238 0.12156070588711337
0.031198429716953077 -0.02548932915440309 0.12026031314826927
0.031298195764785645 -0.024873035493910713 0.1203388545279298
0.031373400888533645 -0.024240900651625326 0.12060912297376296
0.031641231581891804 -0.02373299644742472 0.11937573111083323
0.03170174841675244 -0.023091388638987728 0.11976065825461739
0.03202113964992413 -0.022616737542222418 0.11812477809601173
0.032140659003689245 -0.022013182421115295 0.11804912388513329
0.03225527860489087 -0.02140646728657562 0.11801171778154095
0.0323550449133817 -0.020790172769429287 0.11809025841725662
0.03245481093172824 -0.02017387908992039 0.11816880002708896
0.03260149594177279 -0.019587844004291508 0.11788108716173618
0.03271611566091853 -0.018981128945817917 0.11784368013745665
0.03283073514417603 -0.018374413735212154 0.11780627495455145
0.032935470556372734 -0.01776132395835725 0.1178460261189225
0.033035236746919446 -0.01714502936514483 0.11792456767532535
0.033125130130068785 -0.016522367469994532 0.11808017765337925
0.03318564690831536 -0.01588076013742582 0.11846510459370638
0.033246163713689963 -0.015239152309972304 0.11885003196766235
0.033296944703762196 -0.01459126553134041 0.11931095838511632
0.033318386828691954 -0.013924457142536466 0.12000090780874834
0.03358621767183827 -0.013416553547319795 0.118767514131159
0.033646734506698896 -0.012774945738882802 0.11915244127494318
0.03368294288157913 -0.01211766059591366 0.11972712342640189
0.03368898432039569 -0.011440919792287231 0.12053729261360423
0.0339667686140522 -0.010939435252244438 0.11922620132640865
0.03402728549712238 -0.010297827538946957 0.11961112801318859
0.034068365886172965 -0.009643684648092973 0.12014777842552588
0.034143570973652934 -0.009011549910512267 0.12041804699312361
0.034416911145560405 -0.00782656201595441 0.11999897662657077
0.03446284719877775 -0.007175550832554341 0.12049772293004621
0.03449416216059091 -0.0065151097647047984 0.12111060370185538
0.03476692543920688 -0.0060103867488335815 0.11983870743534739
0.03485681879287019 -0.005387724834666761 0.11999431764357309
0.03492223162318352 -0.0047492751289571365 0.12034102536317423
0.03512116529043946 -0.0035162998120605695 0.12050278211424897
0.035181682125300096 -0.0028746920036235753 0.12088770925803315
0.03024925967677139 -0.025838034977715394 0.12202027246894832
0.03047720473068787 -0.025304406172967277 0.12109823439813529
0.03064543533493951 -0.024732267582579803 0.1206423325247388
0.030813666111391323 -0.024160128078488805 0.12018643059791283
0.030996477641179396 -0.023597392187295025 0.11961670940966707
0.031164708417631214 -0.023025252683204028 0.11916080748284107
0.03131825090519566 -0.022443640212961424 0.11881956425396613
0.03145710519233083 -0.021852554833616773 0.11859297903252683
0.03159595942049394 -0.021261469416239083 0.11836639427143113
0.03173481364865705 -0.02067038399886139 0.11813980951033543
0.03183436453692931 -0.020053951574810668 0.11822003045357388
0.03194359273550458 -0.01944375934535676 0.1182247103417541
0.03209713525255506 -0.018862146894130676 0.11788346688270736
0.032240885577013954 -0.018274219132136848 0.11761866255562796
0.03235994418207558 -0.01767036685886271 0.11754660500919632
0.03246917238065085 -0.0170601746294088 0.11755128489737654
0.03259815374244453 -0.016462721872060188 0.11740176901827548
0.03271721243832224 -0.01585887016973694 0.11732971011752782
0.032836271043383866 -0.0152550178964628 0.11725765257109619
0.03252516581791949 -0.013693101529741255 0.12140083941196138
0.032779226640865154 -0.013176317190397883 0.12027493630724088
0.03299671265085344 -0.012635944025031463 0.119434541606078
0.03317952403321136 -0.012073208038755074 0.11886482156869121
0.03314044101013771 -0.011367364968460731 0.12002723818823555
0.033337873528128864 -0.010814058895158598 0.11934338333725733
0.03338850404022791 -0.010166075132323288 0.11980548432471338
0.0333444883808854 -0.009457050968895975 0.12100640558468646
0.033567194472884206 -0.008920044536174312 0.12012526208146461
0.0337500058337171 -0.008357308664110863 0.11955554205075651
0.033680323053127126 -0.007631730856252935 0.12095682428605617
0.03387286226125232 -0.0070752689246282256 0.12031116724982713
0.03402640476355978 -0.006493656463893881 0.11996992390586629
0.03415538615483949 -0.005896203725561789 0.11982040779659343
0.03428863643460525 -0.004620867519306712 0.12049489698809453
0.03445686721105707 -0.004048728015215715 0.12003899506126856
0.03456606944910066 -0.0027578819144462143 0.12090120704696375
0.029883224309436653 -0.025882185808879122 0.12008553364031864
0.030012420944018754 -0.025284870863352286 0.11993433860455377
0.030092522050834427 -0.024655894628187337 0.12016638707748914
0.030123837160077743 -0.023995453655420402 0.12077926669843934
0.03038212372681402 -0.023481394126448542 0.11962037753217741
0.030731681704390185 -0.023026198566733127 0.11774901183394479
0.030856062832712267 -0.022425778965778694 0.11763540597705043
0.03098525926560816 -0.02182846491493886 0.11748421122488685
0.031114455639532003 -0.021231150826065984 0.11733301693306686
0.031219190992756638 -0.020618061011178034 0.11737276855778149
0.03125050584134169 -0.01995762089506506 0.11798564892267657
0.03138874286792656 -0.019366137423856577 0.1177638821175645
0.03152698001245555 -0.01877465402871418 0.11754211439176525
0.03164649954313685 -0.01817109902170618 0.11746645879985604
0.03174626579265562 -0.017554804466526807 0.1175449998959153
0.03185100085101996 -0.016941714461473644 0.11758475382234787
0.03195076710053873 -0.016325419906294266 0.11766329491840712
0.03201128387878531 -0.01568381257372556 0.11804822185873425
0.032062064986801656 -0.015035925871159747 0.11850914735550104
0.031998940912552926 -0.014314577927167933 0.11985923155472376
0.03194859170499512 -0.013601468919697754 0.12110959347911161
0.03222078366465341 -0.01309637795360473 0.11984215635747579
0.032412004433257854 -0.012539065460281128 0.11920679155472609
0.03244821280813809 -0.011881780317311985 0.1197814737061848
0.03241264758637775 -0.011178205994114369 0.1209164299100655
0.03264974801424966 -0.010650483075561368 0.1199229221830958
0.032599398722214276 -0.009937374077656354 0.12117328468625249
0.03283891875099722 -0.009411211512130712 0.12016088940047898
0.03309657720942085 -0.008216110022897431 0.1198642324531147
0.03314735839513278 -0.007568223434487658 0.12032515726270546
0.033168800535984554 -0.006901415312142638 0.12101510623935126
0.033431801063809816 -0.006390395973500532 0.11981941927827472
0.03350700615807179 -0.005758261112198625 0.12008968795427966
0.033567522992932426 -0.005116653303761632 0.12047461509806384
0.03392841409447399 -0.0033074931080908972 0.120229439803717
0.033988930914591604 -0.0026658852901456425 0.12061436706258707
0.029356120711388503 -0.02446118412264804 0.12112277331136831
0.029558473576756054 -0.02391105108886816 0.12040050991000649
0.02975590613779725 -0.023357744787140144 0.1197166550456709
0.029924136914249066 -0.022785605283049147 0.1192607531188449
0.030077679401813513 -0.02220399281280654 0.11891950988996997
0.03022632585205423 -0.02161922272521311 0.11861648576673511
0.030350338346030285 -0.02101856537970524 0.11850575751760434
0.03049408872946124 -0.02043063765574446 0.11824095273018137
0.03063783888171997 -0.01984271080745416 0.11797614845653148
0.030766820243513644 -0.019245258050105546 0.11782663257743042
0.03089580160530732 -0.01864780529275693 0.11767711669832936
0.031024782967100997 -0.018050352535408314 0.11752760081922829
0.031163637254236168 -0.017459267156063663 0.11730101559778901
0.031079301136466793 -0.01672423885952579 0.11881668377412494
0.031266968514119815 -0.016164634666163854 0.11820905720439377
0.03143030307868972 -0.015589337944524226 0.117791375100438
0.03156915730685283 -0.014998252527146531 0.11756479033934229
0.031688216088830636 -0.014394400367971525 0.1174927314118799
0.03179744399254561 -0.013784207948352398 0.11749741360177805
0.031743311626506246 -0.013068659568500394 0.11877730670908541
0.031673628738734666 -0.012343081627469908 0.12017858986173291
0.03170768438279964 -0.011684408116781233 0.12077007651058466
0.03195655775562989 -0.011164277705902427 0.11968466796314105
0.03190752091347067 -0.010452015342727687 0.12092478506943904
0.032140712852934364 -0.00992177151783041 0.11996178775455195
0.0323828529464994 -0.00871666171883681 0.11978626918638624
0.03250969547925709 -0.00743719262312625 0.12051077848977447
0.032677926197915846 -0.006865053337952871 0.12005487669139177
0.03283925981056916 -0.005607828494969189 0.12051014437057282
0.03298790623132385 -0.005023058388359235 0.12020712047750977
0.03323721731380088 -0.0038225736548688216 0.11997562391232612
0.02858633964616842 -0.02492558202522839 0.1214823978808864
0.028959033252114984 -0.024485308426683363 0.11943043116064021
0.029048926605778295 -0.02386264651251654 0.1195860413688659
0.029191396882706402 -0.023273893205285653 0.11933122925969028
0.029271498073264166 -0.022644915999367615 0.11956327836971153
0.02932227915179448 -0.021997029277785286 0.12002420409665011
0.029328320738041192 -0.021320288569241466 0.12083437213299347
0.029562280991005954 -0.020790540191233612 0.1198653773434271
0.029611025941226325 -0.020141340302766538 0.12034219735340093
0.02996140106986561 -0.01968667277571775 0.11846445157665102
0.030238180095125126 -0.019184539648452313 0.11716120786831496
0.03036256110550309 -0.018584119971431792 0.11704760293210778
0.03045245448865243 -0.017961458076281488 0.11720321291016167
0.030562143317987074 -0.017351562922928505 0.11720429705458228
0.030652036701136417 -0.016728901027778208 0.11735990703263618
0.030722345758074657 -0.016093608549125477 0.11766839481428121
0.030797550766236543 -0.01546147414467533 0.11793866351700089
0.030897316956783254 -0.014845179551462908 0.11801720507340374
0.03095783382112992 -0.014203571762042438 0.11840213198701613
0.030963875540063766 -0.013526831139072963 0.11921229898758641
0.030923289070911658 -0.012820018958766737 0.12038645105782808
0.031165003294649926 -0.012295271374468843 0.11935692776152695
0.03115008402886486 -0.011605012315126742 0.12033071894147385
0.03134960216938484 -0.010372414200672619 0.12048791289535553
0.03150871261116027 -0.009794392753382246 0.12010320540934728
0.031736525722905536 -0.00858004300718485 0.12003952512905973
0.03199036808061369 -0.007382480323599026 0.1197726572420556
0.032041149086607934 -0.006734593811426055 0.12023358321252335
0.03229499147660362 -0.005537030956520822 0.1199667153155012
0.03234577267307806 -0.004889144311004579 0.12042764012175261
0.03271034361641034 -0.003082357367725196 0.12015373950265039
0.02800194753033971 -0.024828907114075777 0.12125218390537267
0.028194486506113663 -0.024272445801170887 0.12060652771481703
0.028372452920951675 -0.023706585134159137 0.12007462812552382
0.02866084740746274 -0.02321194320427652 0.11868071261236317
0.02858593363901168 -0.022482991694275565 0.12012282870153886
0.0287932391548804 -0.021936052789568037 0.11936190426469324
0.028956573835036425 -0.02136075563009317 0.11894422190385094
0.028982101455813505 -0.020696582113476924 0.11960227941427713
0.029008184593394232 -0.020032766868128216 0.12025600048811191
0.029237284742478723 -0.019499885072203797 0.11932494301225387
0.02926399274800547 -0.018836472824981503 0.11997378628543867
0.029547803513221692 -0.018338874700745182 0.1186156518982803
0.029735470713958538 -0.017779270393284113 0.11800802670957987
0.02987432494212165 -0.01718818497590642 0.11778144194848417
0.030027867459172127 -0.016606572524680337 0.11744019848943743
0.030146926064233748 -0.0160027202514062 0.1173681409430058
0.030023264874929127 -0.014561693291849236 0.12004811455533909
0.030277325621801708 -0.014044908391063236 0.11892221268984873
0.03048463096075425 -0.01349796937225658 0.11816128963403387
0.030459675670011205 -0.012801238258922433 0.11921342268779467
0.030627906446463016 -0.012229098754831436 0.1187575207609687
0.030552992840185124 -0.011500147349421347 0.12019963558419952
0.030618127924481632 -0.01086151800368489 0.12054851207081112
0.03088244078821945 -0.010351345290321699 0.11934258052181651
0.03082315196586263 -0.009632470891913224 0.12066272616409913
0.031162553630960425 -0.008490088316086813 0.11972797108866341
0.03134174415744663 -0.007244380183038237 0.12004384512845584
0.03159663553079632 -0.005366856980080674 0.12062611785414086
0.03175507414414259 -0.004788402184238459 0.12024665482911044
0.03228515029754087 -0.0017270813123075818 0.12039545721054552
0.027225892702479996 -0.025289260907937372 0.12166077970238427
0.027456404367870668 -0.02475728739631467 0.12071870632779733
0.027795551363747402 -0.02429537847291121 0.11892860881919129
0.027875652554305165 -0.023666401266993174 0.11916065792921254
0.027980387789585684 -0.02305331137603914 0.11920041047461435
0.02807028114324899 -0.02243064946187232 0.11935602068284004
0.028135694015433355 -0.021792199270786152 0.11970272872098413
0.028370050427953073 -0.021262706389254676 0.11873064145828484
0.028401365714112566 -0.020602265530586875 0.11934351969820428
0.028684245575878255 -0.020104067035746125 0.11799265206474165
0.028715560542407426 -0.019443626995699233 0.11860553150894955
0.0290297128746995 -0.018965597157469566 0.11701054689359996
0.02915409388507746 -0.018365177480449045 0.11689694195739278
0.029243987268226804 -0.017742515585298744 0.11705255193544667
0.02934872244453526 -0.017129425656311665 0.11709230494119205
0.02947791887743116 -0.01653211160547183 0.11694111018902847
0.02956291616428471 -0.015906292054937664 0.11713493973306606
0.02965280946133396 -0.015283630616639126 0.1172905497378347
0.02973780674818751 -0.014657811066104956 0.11748437928187229
0.02982280403504106 -0.014031991515570788 0.11767820882590987
0.029883320840415666 -0.013390383688117274 0.11806313619986585
0.029943837589176212 -0.01274877633653204 0.11844806337036477
0.029989773818130738 -0.012097765010280438 0.11894680862470976
0.029959304224630647 -0.01139747702726857 0.12004198769007948
0.030252528021579732 -0.01090594968034833 0.11861037395004766
0.03028384294034285 -0.010245508840924667 0.1192232547352142
0.030214276128308546 -0.009520005825046314 0.12062363170484963
0.030487039370656478 -0.009015282913879777 0.11935173556010623
0.03067897230369518 -0.00777779284677725 0.119568140632462
0.030906216574931776 -0.00656307630045927 0.11950890071467002
0.030942425170957227 -0.00590579130011404 0.12008358113984027
0.031205811540144644 -0.0047143836748974495 0.11974221169700928
0.03128591264460232 -0.004085406925831173 0.1199742608337453
0.03133669384844826 -0.0034375202850690607 0.12043518558245375
0.026802225884347577 -0.024615605145939627 0.12103325022903856
0.027030170741293855 -0.024081978263681164 0.12011121111422556
0.027198401517745673 -0.023509838759590167 0.11965530918739957
0.027342151842204572 -0.022921910997596343 0.11939050486032018
0.027490798262959262 -0.02233714089098639 0.11908748096725712
0.027609856897506915 -0.021733288636728774 0.11901542319065368
0.027778087673958726 -0.021161149132637776 0.1185595212638277
0.027946318450410543 -0.02058900962854678 0.11810361933700173
0.02809496487116523 -0.020004239521936827 0.11780059544393866
0.028243611119719746 -0.019419470329030394 0.1174975716043051
0.028382465288910797 -0.01882838487361966 0.11727098730355298
0.028501523952944478 -0.018224532638378567 0.11719892929677775
0.028528490904785965 -0.017561287394249236 0.11784575120127115
0.028383383784495723 -0.016787065856463602 0.11983580574593444
0.028652717793603212 -0.016280131190601857 0.11859067880427981
0.0288452570005494 -0.015723669002026486 0.1179450220999511
0.02900859162409137 -0.015148372318419902 0.11752733953565175
0.029152341948550268 -0.014560444556426078 0.11726253520857237
0.0292763543245822 -0.01395978713485212 0.11715180788012877
0.029160437194469372 -0.013204391192820818 0.11891400155599989
0.029348104456536277 -0.012644787437294117 0.11830637524315525
0.02931856541265436 -0.01194509959668842 0.11939429031689076
0.02952587092852308 -0.011398160691980894 0.11863336588004515
0.029694101675488863 -0.010826021168873375 0.11817746418339097
0.029483975059236056 -0.010009866651271362 0.12067506906736213
0.029722411015405556 -0.009483004867204946 0.11967113627441278
0.029828438601852348 -0.008870748584606961 0.11970080039677977
0.030006404965679308 -0.008304888012791632 0.11916890104433704
0.02995736814504511 -0.00759262553540395 0.12040901814395635
0.030201366452196066 -0.006388714224218299 0.12021899403761142
0.030658752519896214 -0.003961149713900562 0.12007789590370709
0.030872171538438617 -0.0027375164819454737 0.12012657811420024
0.02621982294354303 -0.024520213330883486 0.12078750488651943
0.02652370647577194 -0.02403556182663308 0.11927267857240768
0.026674615801892673 -0.023452251142975736 0.1189519901450448
0.02676450918504201 -0.022829589247825438 0.1191076001230987
0.02685440253870532 -0.02220692733365862 0.11926321033132439
0.02693450372926308 -0.02157795012774058 0.11949525944134565
0.027274248077903913 -0.021116425432246202 0.11770050020997433
0.027412485222432906 -0.020524942037103804 0.11747873248417509
0.02754168177327292 -0.019927628062330057 0.11732753681132434
0.027651370430407395 -0.019317733822680594 0.11732862100917443
0.027751136503009987 -0.01870143915340209 0.11740716348626445
0.02788033305385 -0.018104125178628343 0.1172559678134137
0.027985068407074643 -0.01749103536374039 0.11729571943812832
0.02807006569392819 -0.016865215813206224 0.1174895489821659
0.028159959077077534 -0.016242553918055923 0.1176451589602198
0.028220475882452134 -0.01560094609060241 0.11803008633417578
0.02824687051281092 -0.014937332249689543 0.11868137520938232
0.028237182024504225 -0.014250446692760089 0.1196143342584023
0.02819659562670919 -0.013543634046093841 0.12078848641701513
0.028500188127106807 -0.013058793820972279 0.11927593322610747
0.028594743430860332 -0.012439139065892377 0.11939515099876183
0.02873298051641726 -0.011847655632716936 0.11917338373330617
0.02898668347980282 -0.01133063998545746 0.11805027477235935
0.029022892002113197 -0.010673354937570927 0.11862495577295909
0.0290639723106667 -0.010019212122896842 0.11916160665231866
0.02910505254830663 -0.009365069070345518 0.11969825832726147
0.02930331633837089 -0.008131661983552927 0.11986524390432879
0.02950573631305869 -0.006900935294443915 0.11999978584306169
0.029873119072510963 -0.005095961528733172 0.1197039361434503
0.029919055154035337 -0.004444950107398961 0.12020268254865427
0.03023986422177745 -0.0026099396746869096 0.12027039283559707
0.030594725983063877 -0.000796890956902311 0.12007228335732029
0.025592763298246942 -0.024396020815993253 0.12089035740482733
0.025790195760803037 -0.023842715475510066 0.12020650201849176
0.025977862961539883 -0.023283111168048997 0.11959887682979134
0.026141197671181938 -0.022707814027590652 0.11918119423877725
0.026227474976080252 -0.02208282000327703 0.11936503179508284
0.026385913589426515 -0.021504365207434813 0.11898556877005244
0.02654435217328675 -0.020925910392576078 0.1186061059751938
0.026702790757146988 -0.020347455577717343 0.11822664318033518
0.026900223406646277 -0.019794149333038896 0.11754278762548422
0.027019281839507726 -0.01919029797346828 0.11747073013248208
0.026951577318831136 -0.017785358818688368 0.11971389933988869
0.027144116466805267 -0.01722889659207995 0.11906824309590354
0.027361602476793555 -0.01668852342671353 0.11822784839474065
0.027544414095039715 -0.016125787592569312 0.11765812651597951
0.027702852708385982 -0.0155473327967271 0.11727866349094909
0.027821911227347517 -0.014943480980304723 0.1172066059712322
0.027945923603379448 -0.014342823558730764 0.1170958786427886
0.027871010129788692 -0.013613872238895023 0.11853799243024636
0.028048976603598758 -0.013048011609916317 0.11800609238060956
0.028033941297900954 -0.01235767822495466 0.11898078873784954
0.02823137385894215 -0.011804371923226647 0.11829693387351395
0.02838981247228842 -0.011225917127384431 0.11791747084848353
