ply
format ascii 1.0
element vertex 773
property float x
property float y
property float z
end_header
0.011277883313596249 0.0006963072228245437 0.1256999969482422
0.01157886441797018 0.0006946453941054642 0.12539999186992645
0.011906761676073074 0.0006946453941054642 0.12539999186992645
0.0122151467949152 0.0006935375859029591 0.12520000338554382
0.012512466870248318 0.0006918756989762187 0.12489999830722809
0.012839056551456451 0.0006918756989762187 0.12489999830722809
0.01314456481486559 0.0006907677743583918 0.12469999492168427
0.013470631092786789 0.0006907677743583918 0.12469999492168427
0.013774571008980274 0.0006896599079482257 0.12449999898672104
0.014100114814937115 0.0006896599079482257 0.12449999898672104
0.014402484521269798 0.0006885520415380597 0.12429999560117722
0.014703809283673763 0.0006874441751278937 0.12409999966621399
0.015016197226941586 0.0006868902128189802 0.12399999797344208
0.015328062698245049 0.0006863362505100667 0.12389999628067017
0.015639403834939003 0.0006857822882011533 0.12379999458789825
0.015937330201268196 0.0006846744217909873 0.12359999865293503
0.01623420976102352 0.0006835665553808212 0.1233999952673912
0.01651662588119507 0.0006819047266617417 0.12309999763965607
0.016811151057481766 0.0006807968020439148 0.12289999425411224
0.017104631289839745 0.0006796889356337488 0.12269999831914902
0.017368661239743233 0.0006774732028134167 0.12229999899864197
0.01765952631831169 0.0006763652781955898 0.12209999561309814
0.017964068800210953 0.0006758113158866763 0.12199999392032623
0.018253104761242867 0.0006747034494765103 0.121799997985363
0.01857158914208412 0.0006747034494765103 0.121799997985363
0.01887456327676773 0.0006741494871675968 0.1216999962925911
0.019177015870809555 0.0006735955248586833 0.12159999459981918
0.019478945061564445 0.0006730416207574308 0.12150000035762787
0.019780350849032402 0.0006724876584485173 0.12139999866485596
0.02006467804312706 0.0006713797920383513 0.12119999527931213
0.020347960293293 0.0006702719256281853 0.12099999934434891
0.020664352923631668 0.0006702719256281853 0.12099999934434891
0.020980745553970337 0.0006702719256281853 0.12099999934434891
0.02126193419098854 0.0006691640010103583 0.12079999595880508
0.0215599425137043 0.0006686100387014449 0.12069999426603317
0.02189367450773716 0.0006691640010103583 0.12079999595880508
0.022191159427165985 0.0006686100387014449 0.12069999426603317
0.022488120943307877 0.0006680561346001923 0.12060000002384186
0.02282237447798252 0.0006686100387014449 0.12069999426603317
0.02311881259083748 0.0006680561346001923 0.12060000002384186
0.02343415841460228 0.0006680561346001923 0.12060000002384186
0.02374950610101223 0.0006680561346001923 0.12060000002384186
0.02406485192477703 0.0006680561346001923 0.12060000002384186
0.024380197748541832 0.0006680561346001923 0.12060000002384186
0.024695543572306633 0.0006680561346001923 0.12060000002384186
0.025010889396071434 0.0006680561346001923 0.12060000002384186
0.025326237082481384 0.0006680561346001923 0.12060000002384186
0.025641582906246185 0.0006680561346001923 0.12060000002384186
0.025956928730010986 0.0006680561346001923 0.12060000002384186
0.026272274553775787 0.0006680561346001923 0.12060000002384186
0.029889047145843506 0.0006713797920383513 0.12119999527931213
0.03020596317946911 0.0006713797920383513 0.12119999527931213
0.03052287921309471 0.0006713797920383513 0.12119999527931213
0.030839793384075165 0.0006713797920383513 0.12119999527931213
0.031156709417700768 0.0006713797920383513 0.12119999527931213
0.031421687453985214 0.0006702719256281853 0.12099999934434891
0.03171185031533241 0.0006697179633192718 0.120899997651577
0.03202797845005989 0.0006697179633192718 0.120899997651577
0.03231735900044441 0.0006691640010103583 0.12079999595880508
0.03260621055960655 0.0006686100387014449 0.12069999426603317
0.032894548028707504 0.0006680561346001923 0.12060000002384186
0.03320989012718201 0.0006680561346001923 0.12060000002384186
0.03355303779244423 0.0006686100387014449 0.12069999426603317
0.03389670327305794 0.0006691640010103583 0.12079999595880508
0.03421257436275482 0.0006691640010103583 0.12079999595880508
0.034557025879621506 0.0006697179633192718 0.120899997651577
0.03490200266242027 0.0006702719256281853 0.12099999934434891
0.03521839156746864 0.0006702719256281853 0.12099999934434891
0.03553478792309761 0.0006702719256281853 0.12099999934434891
0.035910435020923615 0.0006713797920383513 0.12119999527931213
0.036227352917194366 0.0006713797920383513 0.12119999527931213
0.03657441586256027 0.0006719337543472648 0.12129999697208405
0.03692201152443886 0.0006724876584485173 0.12139999866485596
0.037239447236061096 0.0006724876584485173 0.12139999866485596
0.03761875629425049 0.0006735955248586833 0.12159999459981918
0.03793671727180481 0.0006735955248586833 0.12159999459981918
0.03825467824935913 0.0006735955248586833 0.12159999459981918
0.038604360073804855 0.0006741494871675968 0.1216999962925911
0.03895456716418266 0.0006747034494765103 0.121799997985363
0.009665134362876415 0.0010282507864758372 0.12610000371932983
0.009986935183405876 0.0010274354135617614 0.12600000202655792
0.010308214463293552 0.0010266199242323637 0.125900000333786
0.01062896940857172 0.001025804434902966 0.1257999986410141
0.010949201881885529 0.0010249890619888902 0.1256999969482422
0.011250967159867287 0.001022542710416019 0.12539999186992645
0.011560398153960705 0.0010209119645878673 0.12520000338554382
0.01187827717512846 0.0010200965916737914 0.1251000016927719
0.01216636411845684 0.0010168347507715225 0.12469999492168427
0.01249243039637804 0.0010168347507715225 0.12469999492168427
0.012797938659787178 0.0010152040049433708 0.12449999898672104
0.01311294175684452 0.0010143885156139731 0.12439999729394913
0.01342742145061493 0.0010135731426998973 0.12429999560117722
0.013741378672420979 0.0010127576533704996 0.1241999939084053
0.014054813422262669 0.0010119422804564238 0.12409999966621399
0.014367724768817425 0.001011126791127026 0.12399999797344208
0.014680112712085247 0.0010103114182129502 0.12389999628067017
0.014991977252066135 0.0010094959288835526 0.12379999458789825
0.015303320251405239 0.0010086805559694767 0.12370000034570694
0.015588873997330666 0.0010062343208119273 0.1233999952673912
0.015872858464717865 0.0010037879692390561 0.12309999763965607
0.01616843044757843 0.0010021571069955826 0.12289999425411224
0.016462955623865128 0.0010005263611674309 0.12269999831914902
0.016742756590247154 0.0009980800095945597 0.12239999324083328
0.017034929245710373 0.0009964491473510861 0.12219999730587006
0.017326055094599724 0.0009948182851076126 0.12199999392032623
0.017630601301789284 0.0009940029121935368 0.12189999967813492
0.019161244854331017 0.0009907411877065897 0.12150000035762787
0.019462913274765015 0.0009899258147925138 0.12139999866485596
0.019747763872146606 0.0009882949525490403 0.12119999527931213
0.02003156952559948 0.0009866640903055668 0.12099999934434891
0.020347960293293 0.0009866640903055668 0.12099999934434891
0.02064727433025837 0.000985848717391491 0.120899997651577
0.020946064963936806 0.0009850332280620933 0.12079999595880508
0.021244334056973457 0.0009842177387326956 0.12069999426603317
0.0215599425137043 0.0009842177387326956 0.12069999426603317
0.021857427433133125 0.0009834023658186197 0.12060000002384186
0.022172775119543076 0.0009834023658186197 0.12060000002384186
0.022488120943307877 0.0009834023658186197 0.12060000002384186
0.022803466767072678 0.0009834023658186197 0.12060000002384186
0.023137981072068214 0.0009842177387326956 0.12069999426603317
0.023453589528799057 0.0009842177387326956 0.12069999426603317
0.02376919612288475 0.0009842177387326956 0.12069999426603317
0.024084804579615593 0.0009842177387326956 0.12069999426603317
0.02442062832415104 0.0009850332280620933 0.12079999595880508
0.024736497551202774 0.0009850332280620933 0.12079999595880508
0.02505236677825451 0.0009850332280620933 0.12079999595880508
0.025999974459409714 0.0009850332280620933 0.12079999595880508
0.02631584368646145 0.0009850332280620933 0.12079999595880508
0.026631712913513184 0.0009850332280620933 0.12079999595880508
0.02694758214056492 0.0009850332280620933 0.12079999595880508
0.027263451367616653 0.0009850332280620933 0.12079999595880508
0.02757932059466839 0.0009850332280620933 0.12079999595880508
0.02791828103363514 0.000985848717391491 0.120899997651577
0.028257766738533974 0.0009866640903055668 0.12099999934434891
0.028574159368872643 0.0009866640903055668 0.12099999934434891
0.028890550136566162 0.0009866640903055668 0.12099999934434891
0.02925521694123745 0.0009882949525490403 0.12119999527931213
0.029572132974863052 0.0009882949525490403 0.12119999527931213
0.029913708567619324 0.0009891103254631162 0.12129999697208405
0.030255809426307678 0.0009899258147925138 0.12139999866485596
0.030573248863220215 0.0009899258147925138 0.12139999866485596
0.03086523897945881 0.0009891103254631162 0.12129999697208405
0.031182417646050453 0.0009891103254631162 0.12129999697208405
0.03147362172603607 0.0009882949525490403 0.12119999527931213
0.031790539622306824 0.0009882949525490403 0.12119999527931213
0.03210745379328728 0.0009882949525490403 0.12119999527931213
0.03242437168955803 0.0009882949525490403 0.12119999527931213
0.03268725797533989 0.0009866640903055668 0.12099999934434891
0.03300365060567856 0.0009866640903055668 0.12099999934434891
0.03332003951072693 0.0009866640903055668 0.12099999934434891
0.03369203209877014 0.0009882949525490403 0.12119999527931213
0.0340089425444603 0.0009882949525490403 0.12119999527931213
0.03432586044073105 0.0009882949525490403 0.12119999527931213
0.0346427746117115 0.0009882949525490403 0.12119999527931213
0.034988537430763245 0.0009891103254631162 0.12129999697208405
0.03533481806516647 0.0009899258147925138 0.12139999866485596
0.03565225750207901 0.0009899258147925138 0.12139999866485596
0.035999324172735214 0.0009907411877065897 0.12150000035762787
0.0363469123840332 0.0009915565606206656 0.12159999459981918
0.036664873361587524 0.0009915565606206656 0.12159999459981918
0.036982834339141846 0.0009915565606206656 0.12159999459981918
0.0373314693570137 0.0009923720499500632 0.1216999962925911
0.03768062964081764 0.000993187539279461 0.121799997985363
0.03799911215901375 0.000993187539279461 0.121799997985363
0.03834905847907066 0.0009940029121935368 0.12189999967813492
0.00965746957808733 0.0013569016009569168 0.12600000202655792
0.009979009628295898 0.0013558246428146958 0.125900000333786
0.010291838087141514 0.0013536708429455757 0.1256999969482422
0.010612070560455322 0.0013525938848033547 0.12559999525547028
0.010923069901764393 0.0013504399685189128 0.12539999186992645
0.0112240519374609 0.0013472094433382154 0.1251000016927719
0.011532696895301342 0.0013450555270537734 0.12489999830722809
0.011821307241916656 0.0013407479273155332 0.12449999898672104
0.012137094512581825 0.0013396709691733122 0.12439999729394913
0.01245235837996006 0.001338594127446413 0.12429999560117722
0.012767099775373936 0.001337517169304192 0.1241999939084053
0.013081319630146027 0.001336440327577293 0.12409999966621399
0.013405817560851574 0.001336440327577293 0.12409999966621399
0.01371925137937069 0.001335363369435072 0.12399999797344208
0.014032162725925446 0.0013342865277081728 0.12389999628067017
0.014344550669193268 0.0013332095695659518 0.12379999458789825
0.014668263494968414 0.0013332095695659518 0.12379999458789825
0.014955648221075535 0.0013299788115546107 0.12349999696016312
0.015241463668644428 0.0013267481699585915 0.12319999933242798
0.015525709837675095 0.0013235174119472504 0.12289999425411224
0.01582128182053566 0.0013213636120781302 0.12269999831914902
0.01610265113413334 0.0013181328540667892 0.12239999324083328
0.016395870596170425 0.001315979054197669 0.12219999730587006
0.016701720654964447 0.0013149022124707699 0.12209999561309814
0.017007049173116684 0.001313825254328549 0.12199999392032623
0.017311854287981987 0.0013127484126016498 0.12189999967813492
0.017616137862205505 0.0013116714544594288 0.121799997985363
0.018541093915700912 0.0013095176545903087 0.12159999459981918
0.018859054893255234 0.0013095176545903087 0.12159999459981918
0.020347960293293 0.0013030562549829483 0.12099999934434891
0.02064727433025837 0.0013019792968407273 0.120899997651577
0.020928725600242615 0.0012998254969716072 0.12069999426603317
0.021226733922958374 0.001298748655244708 0.12060000002384186
0.0215599425137043 0.0012998254969716072 0.12069999426603317
0.021857427433133125 0.001298748655244708 0.12060000002384186
0.023453589528799057 0.0012998254969716072 0.12069999426603317
0.02378888987004757 0.0013009023386985064 0.12079999595880508
0.024124713614583015 0.0013019792968407273 0.120899997651577
0.024440845474600792 0.0013019792968407273 0.120899997651577
0.024777453392744064 0.0013030562549829483 0.12099999934434891
0.025093844160437584 0.0013030562549829483 0.12099999934434891
0.025410236790776253 0.0013030562549829483 0.12099999934434891
0.02572662942111492 0.0013030562549829483 0.12099999934434891
0.02604302205145359 0.0013030562549829483 0.12099999934434891
0.02635941281914711 0.0013030562549829483 0.12099999934434891
0.02667580544948578 0.0013030562549829483 0.12099999934434891
0.026992198079824448 0.0013030562549829483 0.12099999934434891
0.027308590710163116 0.0013030562549829483 0.12099999934434891
0.027624981477856636 0.0013030562549829483 0.12099999934434891
0.027941374108195305 0.0013030562549829483 0.12099999934434891
0.02830447256565094 0.0013052100548520684 0.12119999527931213
0.028621386736631393 0.0013052100548520684 0.12119999527931213
0.028938302770256996 0.0013052100548520684 0.12119999527931213
0.029279356822371483 0.0013062868965789676 0.12129999697208405
0.029620932415127754 0.0013073638547211885 0.12139999866485596
0.02993836998939514 0.0013073638547211885 0.12139999866485596
0.030255809426307678 0.0013073638547211885 0.12139999866485596
0.030598433688282967 0.0013084408128634095 0.12150000035762787
0.030916130170226097 0.0013084408128634095 0.12150000035762787
0.03120812401175499 0.0013073638547211885 0.12139999866485596
0.03152555972337723 0.0013073638547211885 0.12139999866485596
0.031842999160289764 0.0013073638547211885 0.12139999866485596
0.0321604385972023 0.0013073638547211885 0.12139999866485596
0.03247787803411484 0.0013073638547211885 0.12139999866485596
0.032795313745737076 0.0013073638547211885 0.12139999866485596
0.03311275318264961 0.0013073638547211885 0.12139999866485596
0.03343018889427185 0.0013073638547211885 0.12139999866485596
0.03374762833118439 0.0013073638547211885 0.12139999866485596
0.03409312665462494 0.0013084408128634095 0.12150000035762787
0.03441082686185837 0.0013084408128634095 0.12150000035762787
0.0347571074962616 0.0013095176545903087 0.12159999459981918
0.03507506847381592 0.0013095176545903087 0.12159999459981918
0.03539302945137024 0.0013095176545903087 0.12159999459981918
0.03571099042892456 0.0013095176545903087 0.12159999459981918
0.03605857864022255 0.0013105944963172078 0.1216999962925911
0.03637680411338806 0.0013105944963172078 0.1216999962925911
0.036725178360939026 0.0013116714544594288 0.121799997985363
0.03704366460442543 0.0013116714544594288 0.121799997985363
0.03739282116293907 0.0013127484126016498 0.12189999967813492
0.037742502987384796 0.001313825254328549 0.12199999392032623
0.009963156655430794 0.0016823525074869394 0.1256999969482422
0.01028365083038807 0.0016810140805318952 0.12559999525547028
0.010586723685264587 0.0016769989160820842 0.12529999017715454
0.010896938852965832 0.0016743222950026393 0.1251000016927719
0.011206107214093208 0.0016716454410925508 0.12489999830722809
0.011495763435959816 0.0016662919661030173 0.12449999898672104
0.011802316643297672 0.0016636151121929288 0.12429999560117722
0.01210782490670681 0.001660938374698162 0.12409999966621399
0.012432322837412357 0.001660938374698162 0.12409999966621399
0.012746541760861874 0.0016595999477431178 0.12399999797344208
0.013070777989923954 0.0016595999477431178 0.12399999797344208
0.01338421180844307 0.0016582615207880735 0.12389999628067017
0.013697123154997826 0.0016569230938330293 0.12379999458789825
0.014020836912095547 0.0016569230938330293 0.12379999458789825
0.014321376569569111 0.0016542464727535844 0.12359999865293503
0.014620870351791382 0.0016515696188434958 0.1233999952673912
0.01490720920264721 0.0016475544543936849 0.12309999763965607
0.015204349532723427 0.0016448777168989182 0.12289999425411224
0.015475178137421608 0.001639524125494063 0.1224999949336052
0.015769705176353455 0.0016368473879992962 0.12229999899864197
0.016076339408755302 0.001635508961044252 0.12219999730587006
0.016369035467505455 0.0016328322235494852 0.12199999392032623
0.016674363985657692 0.0016314939130097628 0.12189999967813492
0.016979169100522995 0.0016301554860547185 0.121799997985363
0.01729765348136425 0.0016301554860547185 0.121799997985363
0.017601674422621727 0.0016288170590996742 0.1216999962925911
0.01791989617049694 0.0016288170590996742 0.1216999962925911
0.01822313293814659 0.00162747863214463 0.12159999459981918
0.018541093915700912 0.00162747863214463 0.12159999459981918
0.018843546509742737 0.0016261403216049075 0.12150000035762787
0.019747763872146606 0.0016221250407397747 0.12119999527931213
0.02003156952559948 0.0016194484196603298 0.12099999934434891
0.020347960293293 0.0016194484196603298 0.12099999934434891
0.02063019759953022 0.0016167715657502413 0.12079999595880508
0.020946064963936806 0.0016167715657502413 0.12079999595880508
0.021244334056973457 0.001615433138795197 0.12069999426603317
0.022191159427165985 0.001615433138795197 0.12069999426603317
0.02252541296184063 0.0016167715657502413 0.12079999595880508
0.02349245175719261 0.0016181099927052855 0.120899997651577
0.023828275501728058 0.0016194484196603298 0.12099999934434891
0.024144668132066727 0.0016194484196603298 0.12099999934434891
0.024461060762405396 0.0016194484196603298 0.12099999934434891
0.025452235713601112 0.0016221250407397747 0.12119999527931213
0.025769151747226715 0.0016221250407397747 0.12119999527931213
0.02608606591820717 0.0016221250407397747 0.12119999527931213
0.02640298195183277 0.0016221250407397747 0.12119999527931213
0.026719896122813225 0.0016221250407397747 0.12119999527931213
0.027036812156438828 0.0016221250407397747 0.12119999527931213
0.02735372632741928 0.0016221250407397747 0.12119999527931213
0.027670642361044884 0.0016221250407397747 0.12119999527931213
0.027987556532025337 0.0016221250407397747 0.12119999527931213
0.02830447256565094 0.0016221250407397747 0.12119999527931213
0.028621386736631393 0.0016221250407397747 0.12119999527931213
0.028962180018424988 0.001623463467694819 0.12129999697208405
0.029303494840860367 0.0016248018946498632 0.12139999866485596
0.029620932415127754 0.0016248018946498632 0.12139999866485596
0.02996303141117096 0.0016261403216049075 0.12150000035762787
0.03030565194785595 0.00162747863214463 0.12159999459981918
0.03062361478805542 0.00162747863214463 0.12159999459981918
0.030941573902964592 0.00162747863214463 0.12159999459981918
0.03125953674316406 0.00162747863214463 0.12159999459981918
0.031577497720718384 0.00162747863214463 0.12159999459981918
0.031895458698272705 0.00162747863214463 0.12159999459981918
0.032213419675827026 0.00162747863214463 0.12159999459981918
0.03253138065338135 0.00162747863214463 0.12159999459981918
0.03284934163093567 0.00162747863214463 0.12159999459981918
0.03316730260848999 0.00162747863214463 0.12159999459981918
0.03348526358604431 0.00162747863214463 0.12159999459981918
0.03380322456359863 0.00162747863214463 0.12159999459981918
0.03414924442768097 0.0016288170590996742 0.1216999962925911
0.03446746990084648 0.0016288170590996742 0.1216999962925911
0.034814272075891495 0.0016301554860547185 0.121799997985363
0.0351327583193779 0.0016301554860547185 0.121799997985363
0.035451240837574005 0.0016301554860547185 0.121799997985363
0.03579909726977348 0.0016314939130097628 0.12189999967813492
0.03611784055829048 0.0016314939130097628 0.12189999967813492
0.03646647557616234 0.0016328322235494852 0.12199999392032623
0.03678547963500023 0.0016328322235494852 0.12199999392032623
0.03713490441441536 0.0016341705340892076 0.12209999561309814
0.009963156655430794 0.002011034172028303 0.1256999969482422
0.011170219630002975 0.0019918358884751797 0.12449999898672104
0.011468062177300453 0.001987036317586899 0.1241999939084053
0.011783326976001263 0.001985436538234353 0.12409999966621399
0.012098068371415138 0.0019838365260511637 0.12399999797344208
0.012412287294864655 0.001982236746698618 0.12389999628067017
0.012725981883704662 0.0019806367345154285 0.12379999458789825
0.013049695640802383 0.0019806367345154285 0.12379999458789825
0.013373409397900105 0.0019806367345154285 0.12379999458789825
0.013686059974133968 0.001979036955162883 0.12370000034570694
0.013986860401928425 0.0019758371636271477 0.12349999696016312
0.014298202469944954 0.001974237384274602 0.1233999952673912
0.014585325494408607 0.001969437813386321 0.12309999763965607
0.014882989227771759 0.001966238021850586 0.12289999425411224
0.015179607085883617 0.001963038230314851 0.12269999831914902
0.01544991321861744 0.001956638880074024 0.12229999899864197
0.01575681008398533 0.001955038867890835 0.12219999730587006
0.016050027683377266 0.0019518390763550997 0.12199999392032623
0.016355618834495544 0.001950239297002554 0.12189999967813492
0.01666068471968174 0.0019486394012346864 0.121799997985363
0.016979169100522995 0.0019486394012346864 0.121799997985363
0.017283450812101364 0.0019470395054668188 0.1216999962925911
0.017601674422621727 0.0019470395054668188 0.1216999962925911
0.01790517196059227 0.0019454396096989512 0.12159999459981918
0.01822313293814659 0.0019454396096989512 0.12159999459981918
0.018541093915700912 0.0019454396096989512 0.12159999459981918
0.018843546509742737 0.0019438398303464055 0.12150000035762787
0.019747763872146606 0.0019390401430428028 0.12119999527931213
0.02006467804312706 0.0019390401430428028 0.12119999527931213
0.020347960293293 0.0019358404679223895 0.12099999934434891
0.020664352923631668 0.0019358404679223895 0.12099999934434891
0.020980745553970337 0.0019358404679223895 0.12099999934434891
0.02126193419098854 0.0019326406763866544 0.12079999595880508
0.02159566804766655 0.001934240572154522 0.120899997651577
0.02189367450773716 0.0019326406763866544 0.12079999595880508
0.022227929905056953 0.001934240572154522 0.120899997651577
0.02254405990242958 0.001934240572154522 0.120899997651577
0.022860191762447357 0.001934240572154522 0.120899997651577
0.02319549210369587 0.0019358404679223895 0.12099999934434891
0.02351188473403454 0.0019358404679223895 0.12099999934434891
0.023828275501728058 0.0019358404679223895 0.12099999934434891
0.0248388834297657 0.0019406400388106704 0.12129999697208405
0.025156060233712196 0.0019406400388106704 0.12129999697208405
0.02547323703765869 0.0019406400388106704 0.12129999697208405
0.025811675935983658 0.001942239934578538 0.12139999866485596
0.026129113510251045 0.001942239934578538 0.12139999866485596
0.026446551084518433 0.001942239934578538 0.12139999866485596
0.02676399052143097 0.001942239934578538 0.12139999866485596
0.027081428095698357 0.001942239934578538 0.12139999866485596
0.027376295998692513 0.0019406400388106704 0.12129999697208405
0.02771630324423313 0.001942239934578538 0.12139999866485596
0.028033742681145668 0.001942239934578538 0.12139999866485596
0.028327826410531998 0.0019406400388106704 0.12129999697208405
0.028668617829680443 0.001942239934578538 0.12139999866485596
0.02898605726659298 0.001942239934578538 0.12139999866485596
0.029303494840860367 0.001942239934578538 0.12139999866485596
0.029669729992747307 0.0019454396096989512 0.12159999459981918
0.029987690970301628 0.0019454396096989512 0.12159999459981918
0.03030565194785595 0.0019454396096989512 0.12159999459981918
0.03062361478805542 0.0019454396096989512 0.12159999459981918
0.030967019498348236 0.0019470395054668188 0.1216999962925911
0.03128524497151375 0.0019470395054668188 0.1216999962925911
0.03160346671938896 0.0019470395054668188 0.1216999962925911
0.031921688467264175 0.0019470395054668188 0.1216999962925911
0.03223991021513939 0.0019470395054668188 0.1216999962925911
0.0325581356883049 0.0019470395054668188 0.1216999962925911
0.03290336951613426 0.0019486394012346864 0.121799997985363
0.033221855759620667 0.0019486394012346864 0.121799997985363
0.03354033827781677 0.0019486394012346864 0.121799997985363
0.0338866226375103 0.001950239297002554 0.12189999967813492
0.03417730703949928 0.0019486394012346864 0.121799997985363
0.034524112939834595 0.001950239297002554 0.12189999967813492
0.03484285622835159 0.001950239297002554 0.12189999967813492
0.03519044816493988 0.0019518390763550997 0.12199999392032623
0.03550945222377777 0.0019518390763550997 0.12199999392032623
0.035857830196619034 0.001953439088538289 0.12209999561309814
0.03620672598481178 0.001955038867890835 0.12219999730587006
0.036526259034872055 0.001955038867890835 0.12219999730587006
0.010267275385558605 0.0023341320920735598 0.12539999186992645
0.010569825768470764 0.0023285483475774527 0.1251000016927719
0.010862096212804317 0.0023211026564240456 0.12469999492168427
0.011773832142353058 0.0023080732207745314 0.12399999797344208
0.012088311836123466 0.0023062119726091623 0.12389999628067017
0.012402269057929516 0.0023043504916131496 0.12379999458789825
0.012725981883704662 0.0023043504916131496 0.12379999458789825
0.013049695640802383 0.0023043504916131496 0.12379999458789825
0.013362607918679714 0.0023024892434477806 0.12370000034570694
0.013663931749761105 0.002298766514286399 0.12349999696016312
0.0139755355194211 0.00229690526612103 0.1233999952673912
0.01426344271749258 0.002291321288794279 0.12309999763965607
0.014561628922820091 0.0022875983268022537 0.12289999425411224
0.014858769252896309 0.0022838758304715157 0.12269999831914902
0.015154863707721233 0.002280153101310134 0.1224999949336052
0.01543727982789278 0.002274569123983383 0.12219999730587006
0.015743914991617203 0.0022727076429873705 0.12209999561309814
0.016050027683377266 0.002270846161991358 0.12199999392032623
0.016355618834495544 0.0022689849138259888 0.12189999967813492
0.01791989617049694 0.002265262184664607 0.1216999962925911
0.01822313293814659 0.002263400936499238 0.12159999459981918
0.018541093915700912 0.002263400936499238 0.12159999459981918
0.018859054893255234 0.002263400936499238 0.12159999459981918
0.019145473837852478 0.0022596782073378563 0.12139999866485596
0.019462913274765015 0.0022596782073378563 0.12139999866485596
0.01976405642926693 0.0022578169591724873 0.12129999697208405
0.02006467804312706 0.0022559554781764746 0.12119999527931213
0.020980745553970337 0.0022522329818457365 0.12099999934434891
0.021297138184309006 0.0022522329818457365 0.12099999934434891
0.021613530814647675 0.0022522329818457365 0.12099999934434891
0.021929923444986343 0.0022522329818457365 0.12099999934434891
0.022246316075325012 0.0022522329818457365 0.12099999934434891
0.02256270870566368 0.0022522329818457365 0.12099999934434891
0.022916916757822037 0.0022559554781764746 0.12119999527931213
0.02323383092880249 0.0022559554781764746 0.12119999527931213
0.02420453168451786 0.0022578169591724873 0.12129999697208405
0.02454192377626896 0.0022596782073378563 0.12139999866485596
0.024859361350536346 0.0022596782073378563 0.12139999866485596
0.025176798924803734 0.0022596782073378563 0.12139999866485596
0.02549423836171627 0.0022596782073378563 0.12139999866485596
0.02583293803036213 0.002261539688333869 0.12150000035762787
0.026150638237595558 0.002261539688333869 0.12150000035762787
0.026468336582183838 0.002261539688333869 0.12150000035762787
0.026786036789417267 0.002261539688333869 0.12150000035762787
0.027103735134005547 0.002261539688333869 0.12150000035762787
0.027421435341238976 0.002261539688333869 0.12150000035762787
0.027739135548472404 0.002261539688333869 0.12150000035762787
0.028056833893060684 0.002261539688333869 0.12150000035762787
0.028374534100294113 0.002261539688333869 0.12150000035762787
0.028692234307527542 0.002261539688333869 0.12150000035762787
0.029033808037638664 0.002263400936499238 0.12159999459981918
0.029351769015192986 0.002263400936499238 0.12159999459981918
0.029669729992747307 0.002263400936499238 0.12159999459981918
0.029987690970301628 0.002263400936499238 0.12159999459981918
0.03033057600259781 0.002265262184664607 0.1216999962925911
0.03064879961311817 0.002265262184664607 0.1216999962925911
0.03099246695637703 0.0022671236656606197 0.121799997985363
0.031310953199863434 0.0022671236656606197 0.121799997985363
0.03162943571805954 0.0022671236656606197 0.121799997985363
0.031947918236255646 0.0022671236656606197 0.121799997985363
0.03229289501905441 0.0022689849138259888 0.12189999967813492
0.03261164203286171 0.0022689849138259888 0.12189999967813492
0.03293038532137871 0.0022689849138259888 0.12189999967813492
0.033276405185461044 0.002270846161991358 0.12199999392032623
0.03359541296958923 0.002270846161991358 0.12199999392032623
0.033942218869924545 0.0022727076429873705 0.12209999561309814
0.03428954631090164 0.002274569123983383 0.12219999730587006
0.034609079360961914 0.002274569123983383 0.12219999730587006
0.03492860496044159 0.002274569123983383 0.12219999730587006
0.03527698293328285 0.002276430372148752 0.12229999899864197
0.03559677302837372 0.002276430372148752 0.12229999899864197
0.03594593331217766 0.0022782916203141212 0.12239999324083328
0.010586723685264587 0.0026599066331982613 0.12529999017715454
0.01116124726831913 0.0026408012490719557 0.12439999729394913
0.011458829045295715 0.002634432865306735 0.12409999966621399
0.013663931749761105 0.0026216956321150064 0.12349999696016312
0.0139755355194211 0.002619572915136814 0.1233999952673912
0.014275029301643372 0.002615327248349786 0.12319999933242798
0.014561628922820091 0.0026089586317539215 0.12289999425411224
0.014858769252896309 0.002604713197797537 0.12269999831914902
0.015142492018640041 0.0025983445812016726 0.12239999324083328
0.01543727982789278 0.0025940989144146442 0.12219999730587006
0.015731021761894226 0.002589853247627616 0.12199999392032623
0.016050027683377266 0.002589853247627616 0.12199999392032623
0.016355618834495544 0.0025877305306494236 0.12189999967813492
0.018541093915700912 0.0025813619140535593 0.12159999459981918
0.018859054893255234 0.0025813619140535593 0.12159999459981918
0.019177015870809555 0.0025813619140535593 0.12159999459981918
0.019478945061564445 0.002579239197075367 0.12150000035762787
0.019780350849032402 0.002577116247266531 0.12139999866485596
0.02009778842329979 0.002577116247266531 0.12139999866485596
0.020415227860212326 0.002577116247266531 0.12139999866485596
0.020715586841106415 0.0025749935302883387 0.12129999697208405
0.02103276364505291 0.0025749935302883387 0.12129999697208405
0.021332338452339172 0.0025728705804795027 0.12119999527931213
0.021649256348609924 0.0025728705804795027 0.12119999527931213
0.021966170519590378 0.0025728705804795027 0.12119999527931213
0.02228308655321598 0.0025728705804795027 0.12119999527931213
0.022600000724196434 0.0025728705804795027 0.12119999527931213
0.022916916757822037 0.0025728705804795027 0.12119999527931213
0.023253001272678375 0.0025749935302883387 0.12129999697208405
0.023589609190821648 0.002577116247266531 0.12139999866485596
0.023907046765089035 0.002577116247266531 0.12139999866485596
0.02422448620200157 0.002577116247266531 0.12139999866485596
0.02454192377626896 0.002577116247266531 0.12139999866485596
0.024859361350536346 0.002577116247266531 0.12139999866485596
0.02519753947854042 0.002579239197075367 0.12150000035762787
0.02553623728454113 0.0025813619140535593 0.12159999459981918
0.02585419826209545 0.0025813619140535593 0.12159999459981918
0.026172159239649773 0.0025813619140535593 0.12159999459981918
0.026490120217204094 0.0025813619140535593 0.12159999459981918
0.026808081194758415 0.0025813619140535593 0.12159999459981918
0.027126042172312737 0.0025813619140535593 0.12159999459981918
0.027444003149867058 0.0025813619140535593 0.12159999459981918
0.02776196412742138 0.0025813619140535593 0.12159999459981918
0.0280799251049757 0.0025813619140535593 0.12159999459981918
0.02839788608253002 0.0025813619140535593 0.12159999459981918
0.028715847060084343 0.0025813619140535593 0.12159999459981918
0.029033808037638664 0.0025813619140535593 0.12159999459981918
0.029351769015192986 0.0025813619140535593 0.12159999459981918
0.029669729992747307 0.0025813619140535593 0.12159999459981918
0.030012352392077446 0.0025834848638623953 0.1216999962925911
0.03035549819469452 0.0025856075808405876 0.121799997985363
0.030673984438180923 0.0025856075808405876 0.121799997985363
0.031017912551760674 0.0025877305306494236 0.12189999967813492
0.03133665770292282 0.0025877305306494236 0.12189999967813492
0.0316813699901104 0.002589853247627616 0.12199999392032623
0.03202660754323006 0.0025919759646058083 0.12209999561309814
0.03234587609767914 0.0025919759646058083 0.12209999561309814
0.03269189968705177 0.0025940989144146442 0.12219999730587006
0.03301142528653145 0.0025940989144146442 0.12219999730587006
0.03333095833659172 0.0025940989144146442 0.12219999730587006
0.033678025007247925 0.0025962218642234802 0.12229999899864197
0.034025613218545914 0.0025983445812016726 0.12239999324083328
0.034373726695775986 0.002600467298179865 0.1224999949336052
0.03475068509578705 0.002604713197797537 0.12269999831914902
0.03507152199745178 0.002604713197797537 0.12269999831914902
0.035392362624406815 0.002604713197797537 0.12269999831914902
0.03571319580078125 0.002604713197797537 0.12269999831914902
0.011170219630002975 0.002968468004837632 0.12449999898672104
0.013663931749761105 0.0029446249827742577 0.12349999696016312
0.013964209705591202 0.002939856145530939 0.1232999935746193
0.014275029301643372 0.0029374719597399235 0.12319999933242798
0.014561628922820091 0.0029303189367055893 0.12289999425411224
0.014858769252896309 0.0029255503322929144 0.12269999831914902
0.015154863707721233 0.0029207817278802395 0.1224999949336052
0.018541093915700912 0.0028993228916078806 0.12159999459981918
0.018859054893255234 0.0028993228916078806 0.12159999459981918
0.019177015870809555 0.0028993228916078806 0.12159999459981918
0.019494976848363876 0.0028993228916078806 0.12159999459981918
0.019812937825918198 0.0028993228916078806 0.12159999459981918
0.02013089880347252 0.0028993228916078806 0.12159999459981918
0.02044885978102684 0.0028993228916078806 0.12159999459981918
0.020749744027853012 0.002896938705816865 0.12150000035762787
0.021067442372441292 0.002896938705816865 0.12150000035762787
0.021367540583014488 0.0028945542871952057 0.12139999866485596
0.021684981882572174 0.0028945542871952057 0.12139999866485596
0.02200241945683956 0.0028945542871952057 0.12139999866485596
0.02231985703110695 0.0028945542871952057 0.12139999866485596
0.022637294605374336 0.0028945542871952057 0.12139999866485596
0.022954734042286873 0.0028945542871952057 0.12139999866485596
0.02327217161655426 0.0028945542871952057 0.12139999866485596
0.023609040305018425 0.002896938705816865 0.12150000035762787
0.023907046765089035 0.0028945542871952057 0.12139999866485596
0.024244440719485283 0.002896938705816865 0.12150000035762787
0.024582354351878166 0.0028993228916078806 0.12159999459981918
0.02487983927130699 0.002896938705816865 0.12150000035762787
0.02521827630698681 0.0028993228916078806 0.12159999459981918
0.02553623728454113 0.0028993228916078806 0.12159999459981918
0.02585419826209545 0.0028993228916078806 0.12159999459981918
0.026172159239649773 0.0028993228916078806 0.12159999459981918
0.026490120217204094 0.0028993228916078806 0.12159999459981918
0.026808081194758415 0.0028993228916078806 0.12159999459981918
0.027126042172312737 0.0028993228916078806 0.12159999459981918
0.027444003149867058 0.0028993228916078806 0.12159999459981918
0.02776196412742138 0.0028993228916078806 0.12159999459981918
0.0280799251049757 0.0028993228916078806 0.12159999459981918
0.02839788608253002 0.0028993228916078806 0.12159999459981918
0.028715847060084343 0.0028993228916078806 0.12159999459981918
0.029057685285806656 0.00290170731022954 0.1216999962925911
0.02937590703368187 0.00290170731022954 0.1216999962925911
0.02971852943301201 0.0029040914960205555 0.121799997985363
0.030037013813853264 0.0029040914960205555 0.121799997985363
0.03038042038679123 0.0029064759146422148 0.12189999967813492
0.03072435036301613 0.0029088601004332304 0.12199999392032623
0.031068801879882812 0.0029112445190548897 0.12209999561309814
0.03141377866268158 0.002913628937676549 0.12219999730587006
0.03173330798745155 0.002913628937676549 0.12219999730587006
0.032079070806503296 0.0029160131234675646 0.12229999899864197
0.032425347715616226 0.00291839730925858 0.12239999324083328
0.03277215734124184 0.0029207817278802395 0.1224999949336052
0.03309246897697449 0.0029207817278802395 0.1224999949336052
0.03346733748912811 0.0029255503322929144 0.12269999831914902
0.03378817439079285 0.0029255503322929144 0.12269999831914902
0.034164607524871826 0.0029303189367055893 0.12289999425411224
0.034485965967178345 0.0029303189367055893 0.12289999425411224
0.034863974899053574 0.002935087541118264 0.12309999763965607
0.03512868657708168 0.0029303189367055893 0.12289999425411224
0.011495763435959816 0.0032940120436251163 0.12449999898672104
0.011792821809649467 0.0032860746141523123 0.1241999939084053
0.01857158914208412 0.003222575644031167 0.121799997985363
0.01887456327676773 0.0032199297565966845 0.1216999962925911
0.019192786887288094 0.0032199297565966845 0.1216999962925911
0.019511008635163307 0.0032199297565966845 0.1216999962925911
0.01982923038303852 0.0032199297565966845 0.1216999962925911
0.020147453993558884 0.0032199297565966845 0.1216999962925911
0.02044885978102684 0.003217283869162202 0.12159999459981918
0.02076682075858116 0.003217283869162202 0.12159999459981918
0.021084781736135483 0.003217283869162202 0.12159999459981918
0.021402742713689804 0.003217283869162202 0.12159999459981918
0.021720705553889275 0.003217283869162202 0.12159999459981918
0.022038666531443596 0.003217283869162202 0.12159999459981918
0.022356627508997917 0.003217283869162202 0.12159999459981918
0.02267458848655224 0.003217283869162202 0.12159999459981918
0.02299254946410656 0.003217283869162202 0.12159999459981918
0.02331051044166088 0.003217283869162202 0.12159999459981918
0.023628471419215202 0.003217283869162202 0.12159999459981918
0.023946432396769524 0.003217283869162202 0.12159999459981918
0.024264393374323845 0.003217283869162202 0.12159999459981918
0.024582354351878166 0.003217283869162202 0.12159999459981918
0.024900315329432487 0.003217283869162202 0.12159999459981918
0.02521827630698681 0.003217283869162202 0.12159999459981918
0.02553623728454113 0.003217283869162202 0.12159999459981918
0.02585419826209545 0.003217283869162202 0.12159999459981918
0.026172159239649773 0.003217283869162202 0.12159999459981918
0.026490120217204094 0.003217283869162202 0.12159999459981918
0.026808081194758415 0.003217283869162202 0.12159999459981918
0.027126042172312737 0.003217283869162202 0.12159999459981918
0.02746657282114029 0.0032199297565966845 0.1216999962925911
0.02776196412742138 0.003217283869162202 0.12159999459981918
0.0280799251049757 0.003217283869162202 0.12159999459981918
0.02842123992741108 0.0032199297565966845 0.1216999962925911
0.028739463537931442 0.0032199297565966845 0.1216999962925911
0.029057685285806656 0.0032199297565966845 0.1216999962925911
0.029400046914815903 0.003222575644031167 0.121799997985363
0.029742930084466934 0.0032252215314656496 0.12189999967813492
0.03008633479475975 0.0032278671860694885 0.12199999392032623
0.03043026477098465 0.0032305128406733274 0.12209999561309814
0.030774720013141632 0.00323315872810781 0.12219999730587006
0.0311196930706501 0.0032358046155422926 0.12229999899864197
0.03149089962244034 0.003241096157580614 0.1224999949336052
0.031863149255514145 0.0032463876996189356 0.12269999831914902
0.03218398988246918 0.0032463876996189356 0.12269999831914902
0.03255780413746834 0.003251679241657257 0.12289999425411224
0.032879166305065155 0.003251679241657257 0.12289999425411224
0.033254556357860565 0.0032569707836955786 0.12309999763965607
0.03357644006609917 0.0032569707836955786 0.12309999763965607
0.03389832004904747 0.0032569707836955786 0.12309999763965607
0.03424800559878349 0.003259616671130061 0.12319999933242798
0.03457015007734299 0.003259616671130061 0.12319999933242798
0.012422304600477219 0.003605019534006715 0.12399999797344208
0.013049695640802383 0.0035992050543427467 0.12379999458789825
0.013373409397900105 0.0035992050543427467 0.12379999458789825
0.013686059974133968 0.0035962979309260845 0.12370000034570694
0.013998186215758324 0.0035933905746787786 0.12359999865293503
0.01430978998541832 0.0035904832184314728 0.12349999696016312
0.014609022065997124 0.003584668505936861 0.1232999935746193
0.01734025776386261 0.003549781395122409 0.12209999561309814
0.017645062878727913 0.003546874038875103 0.12199999392032623
0.017964068800210953 0.003546874038875103 0.12199999392032623
0.01826809160411358 0.0035439669154584408 0.12189999967813492
0.018586836755275726 0.0035439669154584408 0.12189999967813492
0.018905581906437874 0.0035439669154584408 0.12189999967813492
0.01922432705760002 0.0035439669154584408 0.12189999967813492
0.019527040421962738 0.003541059559211135 0.121799997985363
0.019845524802803993 0.003541059559211135 0.121799997985363
0.02016400918364525 0.003541059559211135 0.121799997985363
0.020482493564486504 0.003541059559211135 0.121799997985363
0.02080097608268261 0.003541059559211135 0.121799997985363
0.021119460463523865 0.003541059559211135 0.121799997985363
0.02143794484436512 0.003541059559211135 0.121799997985363
0.021756431087851524 0.003541059559211135 0.121799997985363
0.022056790068745613 0.003538152202963829 0.1216999962925911
0.022375013679265976 0.003538152202963829 0.1216999962925911
0.02269323542714119 0.003538152202963829 0.1216999962925911
0.02299254946410656 0.003535244846716523 0.12159999459981918
0.02331051044166088 0.003535244846716523 0.12159999459981918
0.023628471419215202 0.003535244846716523 0.12159999459981918
0.023946432396769524 0.003535244846716523 0.12159999459981918
0.024264393374323845 0.003535244846716523 0.12159999459981918
0.024582354351878166 0.003535244846716523 0.12159999459981918
0.024900315329432487 0.003535244846716523 0.12159999459981918
0.02521827630698681 0.003535244846716523 0.12159999459981918
0.02553623728454113 0.003535244846716523 0.12159999459981918
0.02585419826209545 0.003535244846716523 0.12159999459981918
0.026172159239649773 0.003535244846716523 0.12159999459981918
0.026490120217204094 0.003535244846716523 0.12159999459981918
0.026830127462744713 0.003538152202963829 0.1216999962925911
0.027148351073265076 0.003538152202963829 0.1216999962925911
0.02746657282114029 0.003538152202963829 0.1216999962925911
0.027784794569015503 0.003538152202963829 0.1216999962925911
0.028103018179535866 0.003538152202963829 0.1216999962925911
0.028444593772292137 0.003541059559211135 0.121799997985363
0.028763078153133392 0.003541059559211135 0.121799997985363
0.029081562533974648 0.003541059559211135 0.121799997985363
0.029424184933304787 0.0035439669154584408 0.12189999967813492
0.02976732887327671 0.003546874038875103 0.12199999392032623
0.030135657638311386 0.0035526887513697147 0.12219999730587006
0.03050503134727478 0.003558502998203039 0.12239999324083328
0.030900638550519943 0.0035672250669449568 0.12269999831914902
0.031221473589539528 0.0035672250669449568 0.12269999831914902
0.031593725085258484 0.003573039546608925 0.12289999425411224
0.03196702152490616 0.003578854026272893 0.12309999763965607
0.03228890895843506 0.003578854026272893 0.12309999763965607
0.032637279480695724 0.003581761382520199 0.12319999933242798
0.03298617899417877 0.003584668505936861 0.1232999935746193
0.03330858424305916 0.003584668505936861 0.1232999935746193
0.03365826606750488 0.003587575862184167 0.1233999952673912
0.013070777989923954 0.003929255995899439 0.12399999797344208
0.01338421180844307 0.00392608717083931 0.12389999628067017
0.013697123154997826 0.0039229183457791805 0.12379999458789825
0.014020836912095547 0.0039229183457791805 0.12379999458789825
0.014332964085042477 0.003919749986380339 0.12370000034570694
0.01463271863758564 0.00391341233626008 0.12349999696016312
0.014955648221075535 0.00391341233626008 0.12349999696016312
0.015266206115484238 0.003910243511199951 0.1233999952673912
0.015563608147203922 0.0039039060939103365 0.12319999933242798
0.015872858464717865 0.0039007372688502073 0.12309999763965607
0.01616843044757843 0.0038943998515605927 0.12289999425411224
0.016489790752530098 0.0038943998515605927 0.12289999425411224
0.01678379438817501 0.003888062434270978 0.12269999831914902
0.017104631289839745 0.003888062434270978 0.12269999831914902
0.017397064715623856 0.0038817247841507196 0.1224999949336052
0.017702914774417877 0.0038785559590905905 0.12239999324083328
0.018008245155215263 0.003875387366861105 0.12229999899864197
0.018313050270080566 0.003872218541800976 0.12219999730587006
0.01863257959485054 0.003872218541800976 0.12219999730587006
0.018952108919620514 0.003872218541800976 0.12219999730587006
0.019271638244390488 0.003872218541800976 0.12219999730587006
0.01959116943180561 0.003872218541800976 0.12219999730587006
0.019910698756575584 0.003872218541800976 0.12219999730587006
0.020230228081345558 0.003872218541800976 0.12219999730587006
0.02054975926876068 0.003872218541800976 0.12219999730587006
0.020869288593530655 0.003872218541800976 0.12219999730587006
0.02118881791830063 0.003872218541800976 0.12219999730587006
0.021473145112395287 0.0038658808916807175 0.12199999392032623
0.02181001752614975 0.0038690497167408466 0.12209999561309814
0.022111162543296814 0.0038658808916807175 0.12199999392032623
0.022430168464779854 0.0038658808916807175 0.12199999392032623
0.022730529308319092 0.003862712299451232 0.12189999967813492
0.02304927445948124 0.003862712299451232 0.12189999967813492
0.02334885112941265 0.003859543474391103 0.121799997985363
0.023667333647608757 0.003859543474391103 0.121799997985363
0.023985818028450012 0.003859543474391103 0.121799997985363
0.024284347891807556 0.0038563746493309736 0.1216999962925911
0.02460256963968277 0.0038563746493309736 0.1216999962925911
0.024900315329432487 0.0038532058242708445 0.12159999459981918
0.025239014998078346 0.0038563746493309736 0.1216999962925911
0.02553623728454113 0.0038532058242708445 0.12159999459981918
0.02585419826209545 0.0038532058242708445 0.12159999459981918
0.026172159239649773 0.0038532058242708445 0.12159999459981918
0.026490120217204094 0.0038532058242708445 0.12159999459981918
0.026830127462744713 0.0038563746493309736 0.1216999962925911
0.027148351073265076 0.0038563746493309736 0.1216999962925911
0.02748914249241352 0.003859543474391103 0.121799997985363
0.027807626873254776 0.003859543474391103 0.121799997985363
0.028126109391450882 0.003859543474391103 0.121799997985363
0.028467947617173195 0.003862712299451232 0.12189999967813492
0.028786692768335342 0.003862712299451232 0.12189999967813492
0.029129313305020332 0.0038658808916807175 0.12199999392032623
0.014032162725925446 0.004250062629580498 0.12389999628067017
0.014344550669193268 0.004246632102876902 0.12379999458789825
0.014668263494968414 0.004246632102876902 0.12379999458789825
0.015290948562324047 0.004239771980792284 0.12359999865293503
0.01560150645673275 0.004236341454088688 0.12349999696016312
0.015911541879177094 0.004232911393046379 0.1233999952673912
0.016221052035689354 0.004229480866342783 0.1232999935746193
0.01653004251420498 0.004226050805300474 0.12319999933242798
0.016852186992764473 0.004226050805300474 0.12319999933242798
0.017160391435027122 0.004222620744258165 0.12309999763965607
0.017482275143265724 0.004222620744258165 0.12309999763965607
