ply
format ascii 1.0
element vertex 825
property float x
property float y
property float z
end_header
3.6793548387096777 -8.220322580645162 0.18635132051283287
3.6793548387096777 -7.720322580645162 -0.21953866743272377
3.6793548387096777 -7.220322580645162 -0.3127736833018644
3.6793548387096777 -6.720322580645162 -0.6252736833018644
3.6793548387096777 -6.220322580645162 0.4831533644276278
3.6793548387096777 -5.720322580645162 -0.046981790296493305
3.6793548387096777 -5.220322580645162 -0.45287034773057533
3.6793548387096777 -4.720322580645162 -0.7028703477305753
3.6793548387096777 -4.220322580645162 -0.7961063172740324
3.6793548387096777 -3.7203225806451616 -1.0148563172740324
3.6793548387096777 -3.2203225806451616 -1.108091333143173
3.6793548387096777 -2.7203225806451616 -1.1696109559459074
3.6793548387096777 -2.2203225806451616 -1.2628469254893644
3.6793548387096777 -1.7203225806451616 -1.4503469254893644
3.6793548387096777 -1.2203225806451616 -1.4487771775645597
3.6793548387096777 -0.7203225806451616 -0.7790221955699308
3.6793548387096777 -0.22032258064516164 0.829650423296036
3.6793548387096777 0.27967741935483836 0.03780462480360435
3.6793548387096777 0.7796774193548384 -0.3680848863047941
3.6793548387096777 1.2796774193548384 -0.6805848863047941
3.6793548387096777 1.7796774193548384 -0.7738208558482511
3.6793548387096777 2.2796774193548384 -0.9613208558482511
3.6793548387096777 2.7796774193548384 0.44553043580824303
3.6793548387096777 3.2796774193548384 0.03964044786268638
3.6793548387096777 3.7796774193548384 -0.1478595521373136
3.6793548387096777 4.279677419354838 -0.11501691602891517
3.6793548387096777 4.779677419354838 -0.17653558515733314
3.6793548387096777 5.279677419354838 0.931891462572159
3.6793548387096777 5.779677419354838 0.46408560014540123
3.6793548387096777 6.279677419354838 0.30783560014540123
3.6793548387096777 6.779677419354838 0.08908560014540123
3.6793548387096777 7.279677419354838 1.330711385973038
3.6793548387096777 7.779677419354838 0.8938975546436922
3.6793548387096777 8.279677419354838 0.5501475546436922
3.6793548387096777 8.779677419354838 1.5931406829434054
3.6793548387096777 9.279677419354838 1.1253333304005282
3.6793548387096777 10.279677419354838 1.4079685423451083
3.6793548387096777 11.279677419354838 1.59558351970488
3.1793548387096777 -9.720322580645162 1.754779419668259
3.1793548387096777 -9.220322580645162 1.3550086233692782
3.1793548387096777 -8.720322580645162 0.7453093741017001
3.1793548387096777 -8.220322580645162 1.2131152365284579
3.1793548387096777 -7.720322580645162 -0.5681342866343839
3.1793548387096777 -7.220322580645162 -0.41188428663438387
3.1793548387096777 -6.720322580645162 -0.19313428663438387
3.1793548387096777 -6.220322580645162 0.36840440965467863
3.1793548387096777 -5.720322580645162 1.026533624895157
3.1793548387096777 -5.220322580645162 0.34919645524794035
3.1793548387096777 -4.720322580645162 -1.1953220155162199
3.1793548387096777 -4.220322580645162 -1.165419557325302
3.1793548387096777 -3.7203225806451616 -1.009169557325302
3.1793548387096777 -3.2203225806451616 -0.6966695573253019
3.1793548387096777 -2.7203225806451616 -0.25985620283311434
3.1793548387096777 -2.2203225806451616 -1.5684096600932462
3.1793548387096777 -1.7203225806451616 -1.4121598985118253
3.1793548387096777 -1.2203225806451616 -1.564470031492172
3.1793548387096777 -0.7203225806451616 -1.4712352540416105
3.1793548387096777 -0.22032258064516164 -1.2837352540416105
3.1793548387096777 0.27967741935483836 -1.3165788438243253
3.1793548387096777 0.7796774193548384 -1.0353288438243253
3.1793548387096777 1.2796774193548384 -0.8790788438243253
3.1793548387096777 1.7796774193548384 -0.5978288438243253
3.1793548387096777 2.2796774193548384 -0.3165788438243253
3.1793548387096777 2.7796774193548384 0.08931162095838957
3.1793548387096777 3.2796774193548384 0.6194462988453524
3.1793548387096777 3.7796774193548384 -0.4235458161753995
3.1793548387096777 4.279677419354838 -0.2047958161753995
3.1793548387096777 4.779677419354838 0.20109321809584074
3.1793548387096777 5.279677419354838 0.6999955389576571
3.1793548387096777 5.779677419354838 1.1988973829823153
3.1793548387096777 6.279677419354838 0.18795349336439543
3.1793548387096777 6.779677419354838 0.7180872175770419
3.1793548387096777 7.279677419354838 1.248222372301163
3.1793548387096777 7.779677419354838 1.7160282943325655
3.1793548387096777 8.279677419354838 0.673036596544327
3.1793548387096777 8.779677419354838 1.0789265844898837
3.1793548387096777 9.279677419354838 1.640465340383591
3.1793548387096777 10.279677419354838 1.3573923323231356
2.6793548387096777 -9.220322580645162 1.5789023253994603
2.6793548387096777 -8.720322580645162 0.8540182325916904
2.6793548387096777 -8.220322580645162 0.3862123701649326
2.6793548387096777 -7.720322580645162 -0.01967714094346584
2.6793548387096777 -7.220322580645162 -0.30092714094346584
2.6793548387096777 -6.720322580645162 -0.5196771409434658
2.6793548387096777 -6.220322580645162 -0.8634271409434658
2.6793548387096777 -4.720322580645162 0.8574495527821201
2.6793548387096777 -4.220322580645162 -0.1316070344371182
2.6793548387096777 -3.7203225806451616 -0.6931457307261807
2.6793548387096777 -3.2203225806451616 -0.9431457307261807
2.6793548387096777 -2.7203225806451616 -1.1931457307261806
2.6793548387096777 -2.2203225806451616 -1.3493957307261806
2.6793548387096777 -1.7203225806451616 -1.4426307465953212
2.6793548387096777 -1.2203225806451616 -1.5358655240458827
2.6793548387096777 -0.7203225806451616 -1.5657670285624843
2.6793548387096777 -0.22032258064516164 -1.6590029981059413
2.6793548387096777 0.27967741935483836 -1.6889054562968593
2.6793548387096777 0.7796774193548384 -1.656060912839828
2.6793548387096777 1.2796774193548384 -0.3475084092540127
2.6793548387096777 1.7796774193548384 -1.1058816697520595
2.6793548387096777 2.2796774193548384 0.20267154908949314
2.6793548387096777 2.7796774193548384 -0.10982892774766506
2.6793548387096777 3.2796774193548384 0.9331631872730869
2.6793548387096777 3.7796774193548384 0.14131834245497166
2.6793548387096777 4.279677419354838 -0.20243165754502834
2.6793548387096777 4.779677419354838 0.8405604574757236
2.6793548387096777 5.279677419354838 0.3727545950489658
2.6793548387096777 5.779677419354838 0.060254595048965805
2.6793548387096777 6.279677419354838 1.1686811659413
2.6793548387096777 6.779677419354838 0.7318673346119541
2.6793548387096777 7.279677419354838 0.5131173346119541
2.6793548387096777 7.779677419354838 1.556109509237351
2.6793548387096777 8.279677419354838 1.0883035872059483
2.6793548387096777 9.279677419354838 1.4723726127224583
2.1793548387096777 -8.720322580645162 1.042909166582169
2.1793548387096777 -8.220322580645162 0.03399135804945415
2.1793548387096777 -7.720322580645162 0.28399135804945413
2.1793548387096777 -7.220322580645162 0.7208042357044835
2.1793548387096777 -6.720322580645162 -0.2901391770762783
2.1793548387096777 -6.220322580645162 0.367989561327042
2.1793548387096777 -5.720322580645162 1.1263623449879308
2.1793548387096777 -5.220322580645162 0.04227115846449321
2.1793548387096773 -4.720322580645162 -1.8306157376689296
2.1793548387096777 -4.220322580645162 -1.1057319428843837
2.1793548387096777 -3.7203225806451616 -0.6998414781016689
2.1793548387096777 -3.2203225806451616 -0.4810914781016689
2.1793548387096777 -2.7203225806451616 -1.772013404600082
2.1793548387096777 -2.2203225806451616 -1.7104937817973476
2.1793548387096777 -1.7203225806451616 -1.617258765928207
2.1793548387096777 -1.2203225806451616 -1.5557381894511562
2.1793548387096777 -0.7203225806451616 -1.588581779233871
2.1793548387096777 -0.22032258064516164 -1.4953470017833095
2.1793548387096777 0.27967741935483836 -1.3390970017833095
2.1793548387096777 0.7796774193548384 -1.1203470017833095
2.1793548387096777 1.2796774193548384 -0.714457490674911
2.1793548387096777 1.7796774193548384 -0.2776431825084072
2.1793548387096777 2.2796774193548384 0.19016220308119242
2.1793548387096777 2.7796774193548384 0.9150471899586339
2.1793548387096777 3.2796774193548384 -0.09589765333360249
2.1793548387096777 3.7796774193548384 0.4030041906910557
2.1793548387096777 4.279677419354838 0.9645433638172765
2.1793548387096777 4.779677419354838 -0.04640100263780171
2.1793548387096777 5.279677419354838 0.515138170488419
2.1793548387096777 5.779677419354838 0.9829454634266515
2.1793548387096777 6.279677419354838 1.7078295562344212
2.1793548387096777 6.779677419354838 0.9802713606434483
2.1793548387096777 7.279677419354838 1.6384006354885716
2.1793548387096777 7.779677419354838 0.5628843519764561
2.1793548387096777 8.279677419354838 0.8441343519764561
2.1793548387096777 8.779677419354838 1.3742685530262608
2.1793548387096777 10.279677419354838 1.6906562659817357
1.679354838709678 -8.720322580645162 1.1034336302357335
1.6793548387096777 -8.220322580645162 0.6045313093739171
1.6793548387096777 -7.720322580645162 0.19864132142836047
1.6793548387096777 -7.220322580645162 -0.14510820173448133
1.6793548387096777 -6.720322580645162 -0.39510820173448136
1.6793548387096777 -6.220322580645162 -0.7076082017344814
1.6793548387096777 -5.720322580645162 -0.8951082017344814
1.6793548387096775 -5.220322580645162 -1.1451082017344814
1.6793548387096775 -4.720322580645162 -1.238343217603622
1.6793548387096775 -4.220322580645162 -1.2367744233531337
1.6793548387096775 -3.7203225806451616 -1.3300103928965907
1.6793548387096775 -3.2203225806451616 -1.5175103928965907
1.6793548387096775 -2.7203225806451616 -1.6737601544780116
1.6793548387096775 -2.2203225806451616 -1.7036616589946132
1.6793548387096775 -1.7203225806451616 -1.0623492982310634
1.6793548387096777 -1.2203225806451616 0.5671954367237706
1.6793548387096777 -0.7203225806451616 -0.4533433701915126
1.6793548387096775 -0.22032258064516164 -0.9211492326182704
1.6793548387096775 0.27967741935483836 -1.2023992326182704
1.6793548387096775 0.7796774193548384 -1.3898992326182704
1.6793548387096777 1.2796774193548384 -0.24836347364610242
1.6793548387096777 1.7796774193548384 -0.6851777818126064
1.6793548387096777 2.2796774193548384 0.2634544584828038
1.6793548387096777 2.7796774193548384 -0.17335984968370008
1.6793548387096777 3.2796774193548384 -0.4233598496837001
1.6793548387096777 3.7796774193548384 0.587584516771378
1.6793548387096777 4.279677419354838 0.15077116227919055
1.679354838709678 4.779677419354838 1.0994024489002843
1.679354838709678 5.279677419354838 0.9431524489002843
1.6793548387096777 5.779677419354838 0.6306524489002843
1.679354838709678 6.279677419354838 1.579284271963181
1.679354838709678 7.279677419354838 1.4710322234707494
1.679354838709678 7.779677419354838 1.0342183325367589
1.679354838709678 8.779677419354838 1.5462604377346654
1.679354838709678 11.279677419354838 1.259210607774796
1.179354838709678 -9.220322580645162 1.7553516242581029
1.179354838709678 -8.720322580645162 1.1353903029041905
1.1793548387096777 -8.220322580645162 0.10114624238783318
1.1793548387096777 -7.720322580645162 0.1943812582569738
1.1793548387096777 -7.220322580645162 0.4443812582569738
1.1793548387096777 -6.720322580645162 -0.535079934827743
1.1793548387096777 -6.220322580645162 -0.191329934827743
1.1793548387096775 -5.720322580645162 -1.499883630506454
1.1793548387096775 -5.220322580645162 -1.5327260281962733
1.1793548387096775 -4.720322580645162 -1.5342948224467616
1.1793548387096775 -4.220322580645162 -1.4410600449962
1.1793548387096775 -3.7203225806451616 -1.3478250291270595
1.1793548387096775 -3.2203225806451616 -1.5540559079570155
1.1793548387096775 -2.7203225806451616 -1.5556256558818202
1.1793548387096775 -2.2203225806451616 -1.557193496457992
1.1793548387096775 -1.7203225806451616 -1.4956750657481532
1.1793548387096775 -1.2203225806451616 -1.4024400498790126
1.1793548387096775 -0.7203225806451616 -1.2461900498790126
1.1793548387096777 -0.22032258064516164 -0.9024400498790125
1.1793548387096777 0.27967741935483836 -0.5586900498790125
1.1793548387096777 0.7796774193548384 -0.15279958509629768
1.1793548387096777 1.2796774193548384 0.44035055375868276
1.1793548387096777 1.7796774193548384 -0.5391120698375086
1.1793548387096777 2.2796774193548384 -0.19536206983750862
1.1793548387096777 2.7796774193548384 0.30354025102430776
1.179354838709678 3.2796774193548384 0.9949875090199133
1.1793548387096777 3.7796774193548384 -0.0480041291636805
1.1793548387096777 4.279677419354838 0.2957453939991613
1.1793548387096777 4.779677419354838 0.7635512564259191
1.179354838709678 5.279677419354838 1.013551256425919
1.1793548387096777 6.279677419354838 0.7289324019032141
1.179354838709678 6.779677419354838 1.1657462332325597
1.179354838709678 7.279677419354838 1.6958814475613255
1.1793548387096777 7.779677419354838 0.6849374983387609
1.1793548387096777 8.279677419354838 0.8411874983387609
1.179354838709678 8.779677419354838 1.1536874983387608
1.179354838709678 9.779677419354838 1.3439793799000401
1.179354838709678 10.279677419354838 1.687729439504685
0.6793548387096779 -8.720322580645162 1.581631264455857
0.6793548387096778 -8.220322580645162 0.8567471716480871
0.6793548387096778 -7.720322580645162 0.5129971716480871
0.6793548387096777 -7.220322580645162 0.16924717164808714
0.6793548387096777 -6.720322580645162 -0.26756665968125853
0.6793548387096776 -6.220322580645162 -0.6113166596812586
0.6793548387096776 -5.720322580645162 -0.8613166596812586
0.6793548387096776 -5.220322580645162 -1.0175666596812585
0.6793548387096776 -4.720322580645162 -1.1738166596812585
0.6793548387096776 -4.220322580645162 -1.3300666596812585
0.6793548387096776 -3.7203225806451616 -1.2354583527964929
0.6793548387096776 -3.2203225806451616 -1.2026157166880944
0.6793548387096775 -2.7203225806451616 -1.4526157166880944
0.6793548387096775 -2.2203225806451616 -1.6401154782695153
0.6793548387096775 -1.7203225806451616 -1.6700169827861169
0.6793548387096775 -1.2203225806451616 -1.6371743466777184
0.6793548387096775 -0.7203225806451616 -1.730409362546859
0.6793548387096775 -0.22032258064516164 -1.760311820737777
0.6793548387096775 0.27967741935483836 -1.7902133252543786
0.6793548387096779 1.2796774193548384 1.655476650960984
0.6793548387096778 1.7796774193548384 0.763903162248673
0.6793548387096777 2.2796774193548384 0.10577442384535277
0.6793548387096777 2.7796774193548384 -0.3310384538096765
0.6793548387096778 3.2796774193548384 0.648422262437882
0.6793548387096777 3.7796774193548384 0.11828758455091917
0.6793548387096778 4.279677419354838 0.5251383993702551
0.6793548387096779 4.779677419354838 1.53608234859282
0.6793548387096778 5.279677419354838 0.8446355078297277
0.6793548387096777 5.779677419354838 0.4078226301746985
0.6793548387096779 6.279677419354838 1.5825906608181617
0.6793548387096778 6.779677419354838 1.0836882803517005
0.6793548387096778 7.279677419354838 0.8336882803517004
0.6793548387096778 7.779677419354838 0.7404532644825598
0.6793548387096778 8.779677419354838 1.3499784681873939
0.6793548387096778 9.279677419354838 1.0062284681873939
0.6793548387096779 10.279677419354838 1.7692442748623511
0.17935483870967772 -8.720322580645162 0.07017948365980595
0.17935483870967772 -8.220322580645162 -0.024428346387801468
0.17935483870967775 -7.720322580645162 0.19432117677504032
0.1793548387096778 -7.220322580645162 0.724455377824845
0.1793548387096777 -6.720322580645162 -0.19408891462510616
0.17935483870967753 -6.220322580645162 -1.6951863553447106
0.1793548387096775 -5.720322580645162 -1.7590596463603356
0.1793548387096775 -5.220322580645162 -1.8536669995707848
0.17935483870967747 -4.720322580645162 -1.948274352781234
0.1793548387096775 -4.220322580645162 -1.886755683652816
0.17935483870967756 -3.7203225806451616 -1.356620767347274
0.17935483870967753 -3.2203225806451616 -1.5089311387461999
0.17935483870967753 -2.7203225806451616 -1.661242225400863
0.17935483870967753 -2.2203225806451616 -1.6940858151835778
0.17935483870967753 -1.7203225806451616 -1.6008507993144372
0.17935483870967753 -1.2203225806451616 -1.5393302228373864
0.17935483870967756 -0.7203225806451616 -1.4460954453868249
0.17935483870967758 -0.22032258064516164 -1.1023454453868249
0.17935483870967764 0.27967741935483836 -0.6964559342784264
0.17935483870967778 0.7796774193548384 0.43645050264173957
0.17935483870967792 1.2796774193548384 1.4878192756252906
0.17935483870967778 1.7796774193548384 0.480521223314347
0.17935483870967772 2.2796774193548384 -0.009965875379500689
0.17935483870967778 2.7796774193548384 0.48893644548231574
0.1793548387096779 3.2796774193548384 1.4459443304615638
0.1793548387096778 3.7796774193548384 0.6626234266834876
0.17935483870967794 4.279677419354838 1.7139926765041968
0.17935483870967783 4.779677419354838 0.9152283880787513
0.1793548387096778 5.779677419354838 0.7307005140858314
0.17935483870967786 6.279677419354838 1.1365895483570716
0.17935483870967794 6.779677419354838 1.7297392699795386
0.1793548387096778 7.279677419354838 0.7811074469166419
0.17935483870967786 7.779677419354838 1.031107446916642
0.1793548387096779 8.279677419354838 1.374857446916642
0.1793548387096779 9.779677419354838 1.2614393446522376
0.17935483870967792 10.279677419354838 1.6051894042568824
-0.32064516129032217 -7.720322580645162 1.046784422166886
-0.3206451612903222 -7.220322580645162 0.4852452490406654
-0.3206451612903223 -6.720322580645162 -0.0448894288462975
-0.32064516129032233 -6.220322580645162 -0.3886394288462975
-0.32064516129032233 -5.720322580645162 -0.6386394288462975
-0.3206451612903224 -5.220322580645162 -0.8573894288462975
-0.3206451612903224 -4.720322580645162 -0.9189100053233483
-0.3206451612903224 -4.220322580645162 -1.1064100053233483
-0.32064516129032244 -3.7203225806451616 -1.2939100053233483
-0.32064516129032244 -3.2203225806451616 -1.387145021192489
-0.32064516129032244 -2.7203225806451616 -1.4803800370616296
-0.32064516129032244 -2.2203225806451616 -1.573614814512191
-0.3206451612903225 -1.7203225806451616 -1.729864814512191
-0.32064516129032233 -1.2203225806451616 -0.46156976484483264
-0.3206451612903224 -0.7203225806451616 -0.9293765809459069
-0.32064516129032244 -0.22032258064516164 -1.241876580945907
-0.32064516129032244 0.27967741935483836 -1.398126580945907
-0.32064516129032244 0.7796774193548384 -1.4280290391368249
-0.32064516129032244 1.2796774193548384 -1.3951844956797936
-0.32064516129032233 1.7796774193548384 -0.3196697022837975
-0.32064516129032217 2.2796774193548384 0.8550992224293372
-0.3206451612903221 2.7796774193548384 1.3677416060047767
-0.3206451612903222 3.2796774193548384 0.509278318651261
-0.3206451612903221 3.7796774193548384 1.5522704932766578
-0.32064516129032217 4.279677419354838 0.7938962194996497
-0.32064516129032217 5.279677419354838 0.7084164831715247
-0.3206451612903221 6.279677419354838 1.358840486772599
-0.32064516129032217 6.779677419354838 1.015090486772599
-0.3206451612903221 7.779677419354838 1.4453702185230872
-0.3206451612903221 8.279677419354838 1.2266202185230872
-0.32064516129032217 9.279677419354838 1.0953703138905189
-0.8206451612903221 -8.220322580645162 1.382292291887345
-0.8206451612903223 -7.720322580645162 -0.2664727952403404
-0.8206451612903223 -7.220322580645162 -0.11022279524034041
-0.8206451612903223 -6.720322580645162 -0.28955266737168806
-0.8206451612903223 -6.220322580645162 -0.07080266737168807
-0.8206451612903223 -5.720322580645162 0.3350873205738686
-0.8206451612903222 -5.220322580645162 1.0265336248951575
-0.8206451612903223 -4.720322580645162 0.26325561738783343
-0.8206451612903222 -4.220322580645162 0.682141325243058
-0.8206451612903224 -3.7203225806451616 -0.8241729524058677
-0.8206451612903225 -3.2203225806451616 -1.8607480313701013
-0.8206451612903225 -2.7203225806451616 -1.9246203687114098
-0.8206451612903225 -2.2203225806451616 -1.7683703687114098
-0.8206451612903225 -1.7203225806451616 -1.7384679105204919
-0.8206451612903225 -1.2203225806451616 -1.5822179105204919
-0.8206451612903224 -0.7203225806451616 -1.300968148939071
-0.8206451612903224 -0.22032258064516164 -1.050968148939071
-0.8206451612903224 0.27967741935483836 -0.9577331330699302
-0.8206451612903224 0.7796774193548384 -0.6139831330699302
-0.8206451612903223 1.2796774193548384 0.0774622175770424
-0.8206451612903222 1.7796774193548384 1.0665183279591224
-0.8206451612903223 2.2796774193548384 0.25374939180189593
-0.8206451612903222 2.7796774193548384 1.0789814207630775
-0.8206451612903222 3.7796774193548384 1.2655425283985755
-0.8206451612903222 4.279677419354838 0.9800043318348549
-0.8206451612903222 5.279677419354838 0.9859686110096596
-0.8206451612903222 6.279677419354838 0.8257975790577553
-0.8206451612903222 6.779677419354838 1.2316875670033118
-0.8206451612903222 7.779677419354838 1.0715165350514075
-0.8206451612903221 8.279677419354838 1.4774056289272925
-0.8206451612903222 9.779677419354838 1.3405003759937903
-1.320645161290322 -8.220322580645162 1.2645373556690835
-1.3206451612903223 -7.720322580645162 0.7656355116444252
-1.3206451612903223 -7.220322580645162 0.35974647737318505
-1.3206451612903223 -6.720322580645162 -0.7509660508555748
-1.3206451612903223 -6.220322580645162 0.45718958116346825
-1.3206451612903223 -5.720322580645162 -0.13596055769151222
-1.3206451612903223 -5.220322580645162 -0.4484605576915122
-1.3206451612903223 -4.720322580645162 0.11861326432997216
-1.3206451612903223 -4.220322580645162 0.682141325243058
-1.3206451612903223 -3.7203225806451616 -0.050117471448836444
-1.3206451612903223 -3.2203225806451616 0.5094223234730385
-1.3206451612903223 -2.7203225806451616 -0.5720338609141685
-1.3206451612903225 -2.2203225806451616 -1.0398397233409262
-1.3206451612903225 -1.7203225806451616 -1.1960897233409262
-1.3206451612903225 -1.2203225806451616 -1.4460897233409262
-1.3206451612903225 -0.7203225806451616 -1.4759912278575278
-1.3206451612903223 0.27967741935483836 0.7733092520313881
-1.3206451612903223 0.7796774193548384 -0.11826322340196144
-1.3206451612903223 1.2796774193548384 -0.7114124085826256
-1.3206451612903223 1.7796774193548384 0.17787554002577294
-1.3206451612903223 2.2796774193548384 -0.16587445997422706
-1.320645161290322 2.7796774193548384 1.0422802183704996
-1.320645161290322 3.2796774193548384 1.356553575761857
-1.3206451612903223 3.7796774193548384 0.3995452139454507
-1.320645161290322 4.279677419354838 1.5079723212795877
-1.3206451612903223 5.279677419354838 0.8017063353138588
-1.320645161290322 6.279677419354838 1.1180114958363199
-1.320645161290322 7.779677419354838 1.6811524245815896
-1.320645161290322 8.279677419354838 1.3999023649769449
-1.320645161290322 10.779677419354838 1.666650376089158
-1.820645161290322 -8.720322580645162 1.6400862548428201
-1.8206451612903223 -8.220322580645162 0.898820421464982
-1.8206451612903223 -7.720322580645162 -0.5358285691661215
-1.8206451612903223 -7.220322580645162 -0.31707856916612154
-1.8206451612903223 -6.720322580645162 -0.25555894636338716
-1.8206451612903223 -6.220322580645162 -0.09930894636338716
-1.8206451612903223 -5.720322580645162 0.21319153047377104
-1.8206451612903223 -5.220322580645162 -0.5526151444835044
-1.8206451612903223 -4.720322580645162 -0.02248189710801607
-1.8206451612903225 -4.220322580645162 -1.0979966905040122
-1.8206451612903223 -3.7203225806451616 -0.5678624894542075
-1.8206451612903225 -3.2203225806451616 -1.8429782178325034
-1.8206451612903225 -2.7203225806451616 -1.906850555173812
-1.8206451612903225 -2.2203225806451616 -1.750600555173812
-1.8206451612903225 -1.7203225806451616 -1.6890809323710776
-1.8206451612903225 -1.2203225806451616 -1.7836882855815268
-1.8206451612903225 -0.7203225806451616 -1.5961882855815268
-1.8206451612903225 -0.22032258064516164 -1.439938524000106
-1.8206451612903225 0.27967741935483836 -1.252438524000106
-1.8206451612903225 0.7796774193548384 -1.064938524000106
-1.8206451612903223 1.2796774193548384 -0.7211885240001059
-1.8206451612903223 1.7796774193548384 -0.3774385240001059
-1.8206451612903223 2.2796774193548384 0.059374353654923384
-1.820645161290322 2.7796774193548384 0.9838586065846109
-1.8206451612903223 3.2796774193548384 -0.1576776292247153
-1.8206451612903223 3.7796774193548384 0.3724575254994058
-1.820645161290322 4.279677419354838 1.5464855048733377
-1.8206451612903223 4.779677419354838 0.535541555650773
-1.8206451612903223 5.779677419354838 0.7705164167957925
-1.8206451612903223 6.779677419354838 0.7801113340931558
-1.820645161290322 7.279677419354838 1.2790122244434976
-1.820645161290322 8.279677419354838 1.057925245531144
-1.820645161290322 8.779677419354838 1.276675245531144
-1.820645161290322 9.279677419354838 1.682564339407029
-2.3206451612903223 -8.220322580645162 1.2264843199329996
-2.3206451612903223 -7.720322580645162 0.5015993330555583
-2.3206451612903223 -7.220322580645162 0.1578493330555582
-2.3206451612903223 -6.720322580645162 -0.029650666944441788
-2.3206451612903223 -6.220322580645162 -0.2484006669444418
-2.3206451612903223 -5.720322580645162 -0.27830217146104336
-2.3206451612903223 -5.220322580645162 -0.6220521714610433
-2.3206451612903223 -4.720322580645162 -0.9658021714610433
-2.3206451612903223 -4.220322580645162 -1.1845521714610434
-2.3206451612903223 -3.7203225806451616 -1.4033021714610434
-2.3206451612903223 -3.2203225806451616 -1.5595519330424643
-2.3206451612903223 -2.7203225806451616 -1.5894534375590659
-2.3206451612903223 -2.2203225806451616 -1.031566598646102
-2.3206451612903223 -1.7203225806451616 0.6246085379200602
-2.3206451612903223 -1.2203225806451616 -0.3644475724620199
-2.3206451612903223 -0.7203225806451616 -0.8633498933238363
-2.3206451612903223 -0.22032258064516164 -1.1758498933238364
-2.3206451612903223 0.27967741935483836 -1.3633498933238364
-2.3206451612903223 0.7796774193548384 -1.4248695161265708
-2.3206451612903223 1.2796774193548384 0.04499628282362462
-2.3206451612903223 1.7796774193548384 -0.4228105332774496
-2.3206451612903223 2.2796774193548384 0.49573423600965977
-2.3206451612903223 2.7796774193548384 -0.0974159028453207
-2.3206451612903223 3.2796774193548384 -0.4411659028453207
-2.3206451612903223 3.7796774193548384 1.6300054404812478
-2.3206451612903223 4.279677419354838 0.838160536058488
-2.3206451612903223 4.779677419354838 0.8914313528614665
-2.3206451612903223 5.279677419354838 0.4855423185902262
-2.3206451612903223 5.779677419354838 1.5285344932156228
-2.3206451612903223 6.779677419354838 1.4311943266468667
-2.3206451612903223 8.779677419354838 1.4318905088978433
-2.3206451612903223 9.779677419354838 1.529727539785447
-2.8206451612903223 -8.220322580645162 1.0960302565174724
-2.8206451612903223 -7.720322580645162 -0.11354444288438313
-2.8206451612903223 -7.220322580645162 -0.3467378404063558
-2.8206451612903223 -6.720322580645162 -0.1904878404063558
-2.8206451612903223 -6.220322580645162 -0.03423784040635579
-2.8206451612903223 -5.720322580645162 0.1845121595936442
-2.8206451612903223 -5.220322580645162 -1.2539481904429768
-2.8206451612903223 -4.720322580645162 -1.406259515516219
-2.8206451612903223 -4.220322580645162 -1.5008678224009846
-2.8206451612903223 -3.7203225806451616 -1.4709653642100666
-2.8206451612903223 -3.2203225806451616 -1.3777293946666096
-2.8206451612903223 -2.7203225806451616 -1.4723377015513752
-2.8206451612903223 -2.2203225806451616 -1.4108190324229573
-2.8206451612903223 -1.7203225806451616 -1.2233190324229573
-2.8206451612903223 -1.2203225806451616 -1.0670690324229573
-2.8206451612903223 -0.7203225806451616 -0.7233190324229574
-2.8206451612903223 -0.22032258064516164 -0.16177938245957846
-2.8206451612903223 0.27967741935483836 0.6300664160328532
-2.8206451612903223 0.7796774193548384 1.6191225860195781
-2.8206451612903223 1.2796774193548384 0.4114065382557536
-2.8206451612903223 1.7796774193548384 0.537900469072404
-2.8206451612903223 2.2796774193548384 0.38558962083632
-2.8206451612903223 2.7796774193548384 -0.5036992814463949
-2.8206451612903223 3.2796774193548384 -0.004797914258894852
-2.8206451612903223 3.7796774193548384 0.46300842500502115
-2.8206451612903223 4.279677419354838 0.9308152411060954
-2.8206451612903223 5.279677419354838 1.125382444627824
-2.8206451612903223 6.279677419354838 1.2934222433643963
-2.8206451612903223 7.779677419354838 1.1385703299122478
-2.8206451612903223 8.279677419354838 1.5753842208462383
-2.8206451612903223 9.779677419354838 1.7177954528408672
-2.8206451612903223 11.279677419354838 1.6428604934292461
-3.3206451612903223 -8.220322580645162 1.250605604417863
-3.3206451612903223 -7.720322580645162 0.720470449693742
-3.3206451612903223 -7.220322580645162 0.2526645872669841
-3.3206451612903223 -6.720322580645162 -0.05983541273301588
-3.3206451612903223 -6.220322580645162 0.11949445939833177
-3.3206451612903223 -5.720322580645162 -0.16175554060166822
-3.3206451612903223 -5.220322580645162 -0.44300554060166825
-3.3206451612903223 -4.720322580645162 -0.7242555406016682
-3.3206451612903223 -4.220322580645162 -1.2543906953257893
-3.3206451612903223 -3.7203225806451616 -1.2842921998423908
-3.3206451612903223 -2.7203225806451616 0.6078572485523845
-3.3206451612903223 -2.2203225806451616 0.1089554045277263
-3.3206451612903223 -1.7203225806451616 -0.549173333875594
-3.3206451612903223 -1.2203225806451616 -0.9859876420420979
-3.3206451612903223 -0.7203225806451616 -1.2672376420420979
-3.3206451612903223 -0.22032258064516164 -1.2971391465586994
-3.3206451612903223 0.27967741935483836 -1.3586587693614338
-3.3206451612903223 0.7796774193548384 -0.1505050446910237
-3.3206451612903223 1.2796774193548384 -0.5563945557994221
-3.3206451612903223 1.7796774193548384 0.26957752443129074
-3.3206451612903223 2.2796774193548384 -0.26055715345567215
-3.3206451612903223 2.7796774193548384 -0.5418071534556721
-3.3206451612903223 3.2796774193548384 0.6663475248890545
-3.3206451612903223 3.7796774193548384 1.7418623778896953
-3.8206451612903223 -8.720322580645162 1.535534462698045
-3.8206451612903223 -8.220322580645162 0.8210935804920818
-3.8206451612903223 -7.720322580645162 -0.08436391615098457
-3.8206451612903223 -7.220322580645162 -0.08593271040147285
-3.8206451612903223 -6.720322580645162 0.22656728959852715
-3.8206451612903223 -6.220322580645162 0.6943745825367595
-3.8206451612903223 -5.720322580645162 1.5859475944119121
-3.8206451612903223 -4.720322580645162 -1.5323788907451008
-3.8206451612903223 -4.220322580645162 -1.5652224805278157
-3.8206451612903223 -3.7203225806451616 -1.7175338056010578
-3.8206451612903227 -3.2203225806451616 -1.8698441769999836
-3.8206451612903227 -2.7203225806451616 -1.9644524838847492
-3.8206451612903223 -2.2203225806451616 -1.7144524838847492
-3.8206451612903223 -1.7203225806451616 -1.4957027223033283
-3.8206451612903223 -1.2203225806451616 -1.2769527223033283
-3.8206451612903223 -0.7203225806451616 -1.1207027223033283
-3.8206451612903223 -0.22032258064516164 -0.9019527223033283
-3.8206451612903223 0.27967741935483836 -0.7457027223033283
-3.8206451612903223 0.7796774193548384 -0.46445272230332835
-3.8206451612903223 1.2796774193548384 -0.05856225752061348
-3.8206451612903223 1.7796774193548384 0.6998105261402752
-3.8206451612903223 2.2796774193548384 -0.3431815888804768
-3.8206451612903223 2.7796774193548384 -0.061931588880476764
-3.8206451612903223 3.2796774193548384 0.2818184111195232
-3.8206451612903223 3.7796774193548384 0.9399476263600017
-3.8206451612903223 4.279677419354838 -0.07099626325791816
-3.8206451612903223 4.779677419354838 0.17900325990492363
-3.8206451612903223 5.279677419354838 0.4602532599049236
-3.8206451612903223 5.779677419354838 0.4586844656544353
-3.8206451612903223 6.279677419354838 0.7711844656544353
-3.8206451612903223 6.779677419354838 1.207998296983781
-3.8206451612903223 7.279677419354838 1.6758042190151836
-4.320645161290322 -8.720322580645162 1.3409686300831463
-4.320645161290322 -8.220322580645162 0.5825953695850995
-4.320645161290322 -7.720322580645162 0.2700953695850995
-4.320645161290322 -7.220322580645162 -0.13579461836045717
-4.320645161290322 -6.720322580645162 -0.35454461836045714
-4.320645161290322 -6.220322580645162 -0.5107946183604571
-4.320645161290322 -5.720322580645162 -0.6040296342295978
-4.320645161290322 -5.220322580645162 -0.6655492570323321
-4.320645161290322 -4.720322580645162 -0.8217992570323321
-4.320645161290322 -4.220322580645162 -1.3833389069957112
-4.320645161290322 -3.7203225806451616 -0.2085704591197345
-4.320645161290322 -3.2203225806451616 -0.770109155408797
-4.320645161290322 -2.7203225806451616 -0.6755018021983478
-4.320645161290322 -2.2203225806451616 -0.9567518021983478
-4.320645161290322 -1.7203225806451616 -1.0182714250010823
-4.320645161290322 -1.2203225806451616 -1.0481738831920002
-4.320645161290322 -0.7203225806451616 -1.1414088990611408
-4.320645161290322 -0.22032258064516164 -1.0775356080455158
-4.320645161290322 0.27967741935483836 0.1306185934620526
-4.320645161290322 0.7796774193548384 -0.2752704408091876
-4.320645161290322 1.2796774193548384 0.8331566069203046
-4.320645161290322 1.7796774193548384 0.36534931398207215
-4.320645161290322 2.2796774193548384 0.02159931398207213
-4.320645161290322 2.7796774193548384 1.2297544691639568
-4.320645161290322 3.2796774193548384 0.3381815168934491
-4.320645161290322 3.7796774193548384 1.381173631914201
-4.320645161290322 4.279677419354838 1.5279036376553203
-4.820645161290322 -9.220322580645162 1.7177434775906233
-4.820645161290322 -8.720322580645162 0.014398596056046799
-4.820645161290322 -8.220322580645162 -0.2941541459483477
-4.820645161290322 -7.720322580645162 -0.012904145948347732
-4.820645161290322 -7.220322580645162 0.3929844114857343
-4.820645161290322 -6.720322580645162 -0.6179599549693439
-4.820645161290322 -6.220322580645162 -0.4617099549693438
-4.820645161290322 -5.720322580645162 0.03719236589247258
-4.820645161290322 -5.220322580645162 0.4740061972218183
-4.820645161290322 -4.720322580645162 -0.9328441407603595
-4.820645161290322 -4.220322580645162 -0.9344138886851642
-4.820645161290322 -3.7203225806451616 -0.8411779191417071
-4.820645161290322 -3.2203225806451616 -0.5911779191417071
-4.820645161290322 -2.7203225806451616 -0.4349279191417071
-4.820645161290322 -2.2203225806451616 0.0018854353504803932
-4.820645161290322 -1.7203225806451616 -1.1065416123790117
-4.820645161290322 -1.2203225806451616 -1.0450219895762773
-4.820645161290322 -0.7203225806451616 -0.8262719895762775
-4.820645161290322 -0.22032258064516164 -0.7963695313853595
-4.820645161290322 0.27967741935483836 -0.45261953138535943
-4.820645161290322 0.7796774193548384 -0.046730020276961014
-4.820645161290322 1.2796774193548384 0.546419164903703
-4.820645161290322 1.7796774193548384 1.4379925940113691
-4.820645161290322 2.2796774193548384 0.6721854422169354
-4.820645161290322 2.7796774193548384 1.4974165771084456
-4.820645161290322 3.2796774193548384 0.42190124727064643
-4.820645161290322 3.7796774193548384 1.346385500200334
-4.820645161290322 4.779677419354838 1.1485433790760664
-4.820645161290322 7.779677419354838 0.14343836046034367
-5.320645161290322 -8.720322580645162 0.9689002249317793
-5.320645161290322 -8.220322580645162 0.17705538011366403
-5.320645161290322 -7.720322580645162 -0.13544461988633597
-5.320645161290322 -7.220322580645162 -0.38544461988633594
-5.320645161290322 -6.720322580645162 0.625499269731584
-5.320645161290322 -6.220322580645162 0.12659742570692575
-5.320645161290322 -5.720322580645162 -0.3102159287852617
-5.320645161290322 -5.220322580645162 -0.5289659287852617
-5.320645161290322 -4.720322580645162 -0.4650935914439531
-5.320645161290322 -4.220322580645162 -0.6213435914439531
-5.320645161290322 -3.7203225806451616 -0.7775935914439531
-5.320645161290322 -3.2203225806451616 -0.8708286073130937
-5.320645161290322 -2.7203225806451616 -0.9007310655040117
-5.320645161290322 -2.2203225806451616 -0.9622506883067461
-5.320645161290322 -1.7203225806451616 -1.0554857041758867
-5.320645161290322 -1.2203225806451616 -1.2429857041758867
-5.320645161290322 -0.7203225806451616 -1.3362207200450273
-5.320645161290322 -0.22032258064516164 -0.1614522721690508
-5.320645161290322 0.27967741935483836 -0.9532975938243242
-5.320645161290322 0.7796774193548384 0.3552556250172285
-5.320645161290322 1.2796774193548384 1.3038873884754805
-5.320645161290322 1.7796774193548384 1.4661655638294844
-5.320645161290322 2.2796774193548384 1.5480762336331038
-5.320645161290322 4.779677419354838 1.317966482408586
-5.320645161290322 6.779677419354838 1.7019472930508284
-5.820645161290322 -9.220322580645162 1.1070184919911055
-5.820645161290322 -8.720322580645162 0.6663685057240156
-5.820645161290322 -8.220322580645162 0.008397600420060594
-5.820645161290322 -7.720322580645162 0.4452114317494063
-5.820645161290322 -7.220322580645162 -0.5977802064341875
-5.820645161290322 -6.720322580645162 0.06034853196913286
-5.820645161290322 -6.220322580645162 0.37284853196913287
-5.820645161290322 -5.720322580645162 -0.7355785157603594
-5.820645161290322 -5.220322580645162 -0.5480785157603594
-5.820645161290322 -4.720322580645162 -0.3293285157603593
-5.820645161290322 -4.220322580645162 -0.17307851576035932
-5.820645161290322 -3.7203225806451616 0.10817148423964067
-5.820645161290322 -3.2203225806451616 -1.3302898194712969
-5.820645161290322 -2.7203225806451616 -1.3631324555796953
-5.820645161290322 -2.2203225806451616 -1.3332309510630937
-5.820645161290322 -1.7203225806451616 -1.2399959351939531
-5.820645161290322 -1.2203225806451616 -1.2415647294444414
-5.820645161290322 -0.7203225806451616 -0.9290647294444414
-5.820645161290322 -0.22032258064516164 -0.7415647294444414
-5.820645161290322 0.27967741935483836 -0.42906472944444135
-5.820645161290322 0.7796774193548384 0.007749578722062547
-5.820645161290322 1.2796774193548384 0.5378842566090254
-5.820645161290322 1.7796774193548384 -0.5051078584117266
-5.820645161290322 2.2796774193548384 -0.47520540022080854
-5.820645161290322 2.7796774193548384 -0.31895540022080854
-5.820645161290322 3.2796774193548384 -0.16270540022080854
-5.820645161290322 3.7796774193548384 0.02479459977919145
-5.820645161290322 4.279677419354838 0.7496786329823164
-5.820645161290322 4.779677419354838 1.2485804770069746
-6.320645161290322 -9.220322580645162 1.4396195623951582
-6.320645161290322 -8.720322580645162 0.5811562750416427
-6.320645161290322 -8.220322580645162 0.0510215971546798
-6.320645161290322 -7.720322580645162 0.7730546209889083
-6.320645161290322 -7.220322580645162 -0.1185188081187577
-6.320645161290322 -6.720322580645162 -0.5244073655528397
-6.320645161290322 -6.220322580645162 -1.054542520276961
-6.320645161290322 -5.720322580645162 0.05388452745253136
-6.320645161290322 -5.220322580645162 -0.19611547254746864
-6.320645161290322 -4.720322580645162 -0.5086154725474686
-6.320645161290322 -4.220322580645162 -0.6961154725474686
-6.320645161290322 -3.7203225806451616 -0.9773654725474686
-6.320645161290322 -3.2203225806451616 -1.1336154725474687
-6.320645161290322 -2.7203225806451616 -1.1007728364390703
-6.320645161290322 -2.2203225806451616 -0.948461511365828
-6.320645161290322 -1.7203225806451616 -1.1672115113658281
-6.320645161290322 -1.2203225806451616 -1.3234615113658281
-6.320645161290322 -0.7203225806451616 -1.384980180494246
-6.320645161290322 -0.22032258064516164 -1.414882638685164
-6.320645161290322 0.27967741935483836 -1.4447841432017656
-6.320645161290322 0.7796774193548384 -0.10291383527940223
-6.320645161290322 1.2796774193548384 1.1387124273853926
-6.320645161290322 1.7796774193548384 0.4138283941822677
-6.320645161290322 2.2796774193548384 1.4568205092030195
-6.320645161290322 2.7796774193548384 1.2559552404957441
-6.320645161290322 5.279677419354838 1.5818115089016584
-6.320645161290322 7.779677419354838 0.4879584524708419
-6.820645161290322 -9.220322580645162 0.75302936769301
-6.820645161290322 -8.720322580645162 0.3832612249928146
-6.820645161290322 -8.220322580645162 -0.03291318678086702
-6.820645161290322 -7.720322580645162 -0.8456830766124099
-6.820645161290322 -7.220322580645162 -0.4088697221202225
-6.820645161290322 -6.720322580645162 0.05893757081800993
-6.820645161290322 -6.220322580645162 -0.9205236222667068
-6.820645161290322 -5.720322580645162 -0.45271775983994905
-6.820645161290322 -5.220322580645162 0.5678215239124924
-6.820645161290322 -4.720322580645162 -0.27118299268907015
-6.820645161290322 -4.220322580645162 0.7178735945301682
-6.820645161290322 -3.7203225806451616 -0.29307077192491
-6.820645161290322 -3.2203225806451616 -1.46783826612657
-6.820645161290322 -2.7203225806451616 -1.18658826612657
-6.820645161290322 -2.2203225806451616 -1.03033826612657
-6.820645161290322 -1.7203225806451616 -0.8428382661265701
-6.820645161290322 -1.2203225806451616 -0.6553382661265701
-6.820645161290322 -0.7203225806451616 -0.37408826612657015
-6.820645161290322 -0.22032258064516164 0.09371759630018767
-6.820645161290322 0.27967741935483836 1.114256403215471
-6.820645161290322 0.7796774193548384 0.7126236174183518
-6.820645161290322 1.2796774193548384 -0.3303689744395584
-6.820645161290322 1.7796774193548384 0.16853239274794157
-6.820645161290322 2.2796774193548384 0.7300725195484787
-6.820645161290322 2.7796774193548384 1.719127259023729
-6.820645161290322 3.2796774193548384 1.206485292680803
-6.820645161290322 3.7796774193548384 0.2270245764332443
-6.820645161290322 4.279677419354838 0.5395245764332444
-6.820645161290322 4.779677419354838 1.2309713575916916
-7.320645161290322 -9.220322580645162 1.2523122046070725
-7.320645161290322 -8.720322580645162 0.23177339769178928
-7.320645161290322 -8.220322580645162 -0.23603246473496853
-7.320645161290322 -7.720322580645162 -0.8941612031382888
-7.320645161290322 -7.220322580645162 -1.2379112031382888
-7.320645161290322 -6.720322580645162 -0.2892808701915115
-7.320645161290322 -6.220322580645162 -0.8824300553721756
-7.320645161290322 -5.720322580645162 -1.1949300553721756
-7.320645161290322 -5.220322580645162 -0.21546838545030056
-7.320645161290322 -4.720322580645162 -0.6832742478770584
-7.320645161290322 -4.220322580645162 0.1838183615284592
-7.320645161290322 -3.7203225806451616 -0.5410651948375076
-7.320645161290322 -3.2203225806451616 -0.9469556596202224
-7.320645161290322 -2.7203225806451616 -0.5932359483165115
-7.320645161290322 -2.2203225806451616 -0.9369859483165115
-7.320645161290322 -1.7203225806451616 -1.1244859483165115
-7.320645161290322 -1.2203225806451616 -1.2177209641856521
-7.320645161290322 -0.7203225806451616 -1.3109559800547927
-7.320645161290322 0.27967741935483836 1.4036841604786545
-7.320645161290322 0.7796774193548384 1.399286291368547
-7.320645161290322 1.2796774193548384 1.4811974380093247
-7.320645161290322 1.7796774193548384 0.3997426245289475
-7.320645161290322 2.2796774193548384 -0.006147363416609144
-7.320645161290322 2.7796774193548384 -0.47395322584336697
-7.320645161290322 3.2796774193548384 -0.7463960435313552
-7.320645161290322 3.7796774193548384 -0.6517877366465896
-7.820645161290322 -9.720322580645162 1.615445217855516
-7.820645161290322 -9.220322580645162 0.822907469041887
-7.820645161290322 -8.720322580645162 -0.8998346116465895
-7.820645161290322 -8.220322580645162 -0.6498346116465895
-7.820645161290322 -7.720322580645162 0.008294603593888963
-7.820645161290322 -7.220322580645162 -1.0026502396983474
-7.820645161290322 -6.720322580645162 -1.951281287900862
-7.820645161290322 -6.220322580645162 -1.795031287900862
-7.820645161290322 -5.720322580645162 -1.576281287900862
-7.820645161290322 -5.220322580645162 -1.2950315263194412
-7.820645161290322 -4.720322580645162 -0.8891420152110426
-7.820645161290322 -4.220322580645162 -0.09729669355576924
-7.820645161290322 -3.7203225806451616 -1.2057237412852615
-7.820645161290322 -3.2203225806451616 -0.9869737412852614
-7.820645161290322 -2.7203225806451616 -0.7057237412852614
-7.820645161290322 -2.2203225806451616 0.28333236909681864
-7.820645161290322 -1.7203225806451616 -0.8250942017955153
-7.820645161290322 -1.2203225806451616 -0.35728833936875753
-7.820645161290322 -0.7203225806451616 0.40108444429213114
-7.820645161290322 -0.22032258064516164 1.3580923292713791
-7.820645161290322 0.27967741935483836 0.30109359956556864
-7.820645161290322 0.7796774193548384 -0.06653020643418721
-7.820645161290322 1.2796774193548384 0.5266194555836351
-7.820645161290322 1.7796774193548384 1.4511032316761643
-7.820645161290322 2.2796774193548384 0.6383342955189378
-7.820645161290322 3.2796774193548384 1.089206239946428
-7.820645161290322 4.279677419354838 1.4782024238186509
-7.820645161290322 4.779677419354838 0.49874117112928934
-7.820645161290322 5.279677419354838 0.8112411711292894
-7.820645161290322 5.779677419354838 1.217131159074846
-7.820645161290322 6.279677419354838 1.623020252950731
-8.320645161290322 -9.220322580645162 1.323705217607561
-8.320645161290322 -8.720322580645162 0.3992214415150316
-8.320645161290322 -8.220322580645162 -0.5252628114146559
-8.320645161290322 -7.720322580645162 -1.055397966138777
-8.320645161290322 -7.220322580645162 -1.461286523572859
-8.320645161290322 -6.720322580645162 -1.6800362851542798
-8.320645161290322 -6.220322580645162 -1.8987862851542798
-8.320645161290322 -5.720322580645162 -1.0867709901255933
-8.320645161290322 -5.220322580645162 0.045976183183732776
-8.320645161290322 -4.720322580645162 -0.8455962922496169
-8.320645161290322 -4.220322580645162 -1.2824106004161206
-8.320645161290322 -3.7203225806451616 -1.3123130586070386
-8.320645161290322 -3.2203225806451616 -1.1329822328013746
-8.320645161290322 -2.7203225806451616 -1.5697963025492994
-8.320645161290322 -2.2203225806451616 -0.4942807938975661
-8.320645161290322 -1.7203225806451616 -0.9310931947154372
-8.320645161290322 -1.2203225806451616 -1.243593194715437
-8.320645161290322 -0.7203225806451616 -1.524843194715437
-8.320645161290322 -0.22032258064516164 -1.554745414487776
-8.320645161290322 0.27967741935483836 -1.4908733155650464
-8.320645161290322 0.7796774193548384 1.4665541861134204
-8.320645161290322 1.2796774193548384 0.5095463011341722
-8.320645161290322 1.7796774193548384 -0.6916904237193434
-8.320645161290322 2.2796774193548384 -0.8479404237193434
-8.320645161290322 2.7796774193548384 -0.8463716294688551
-8.320645161290322 3.2796774193548384 0.44769432283217026
-8.320645161290322 3.7796774193548384 -0.10794542097276137
-8.320645161290322 4.279677419354838 -0.8475580003184645
-8.820645161290322 -9.220322580645162 0.2570624563770922
-8.820645161290322 -8.720322580645162 0.3640122625904711
-8.820645161290322 -8.220322580645162 -0.16422174238389411
-8.820645161290322 -7.720322580645162 -1.0535096909922925
-8.820645161290322 -7.220322580645162 -0.5546073701304761
-8.820645161290322 -6.720322580645162 -1.72937653326219
-8.820645161290322 -6.220322580645162 -1.448126771680769
-8.820645161290322 -5.720322580645162 -0.917991616956648
-8.820645161290322 -5.220322580645162 0.07106449342543206
-8.820645161290322 -4.720322580645162 1.0601206038075122
-8.820645161290322 -4.220322580645162 -0.8985900666636792
-8.820645161290322 -3.7203225806451616 -1.8366210248393384
-8.820645161290322 -3.2203225806451616 -1.5241212632579175
-8.820645161290322 -2.7203225806451616 -1.3366212632579175
-8.820645161290322 -2.2203225806451616 -0.9928712632579175
-8.820645161290322 -1.7203225806451616 -0.55605790876573
-8.820645161290322 -1.2203225806451616 0.135388395555559
-8.820645161290322 -0.7203225806451616 -0.8440723206919996
-8.820645161290322 -0.22032258064516164 -0.4072589661998121
-8.820645161290322 0.27967741935483836 0.18589021898085198
-8.820645161290322 0.7796774193548384 1.267346403368059
-8.820645161290322 1.2796774193548384 0.642346403368059
-8.820645161290322 1.7796774193548384 -0.14097497724717536
-8.820645161290322 2.2796774193548384 0.4205641958790453
-8.820645161290322 2.7796774193548384 0.7643141958790454
-8.820645161290322 3.2796774193548384 1.6558876845913562
-8.820645161290322 3.7796774193548384 1.409889242418352
-8.820645161290322 5.279677419354838 1.0152511808949145
-8.820645161290322 5.779677419354838 1.4520654890614184
-9.320645161290322 -9.220322580645162 1.5571356628018054
-9.320645161290322 -8.720322580645162 0.9639854643421801
-9.320645161290322 -8.220322580645162 -0.05655381941026124
-9.320645161290322 -7.720322580645162 -0.8149270799083081
