ply
format ascii 1.0
element vertex 716
property float x
property float y
property float z
property uchar red
property uchar green
property uchar blue
end_header
-8.02003795436211 -11.909975344018545 -2.088694982126356 60 60 59
-7.5466631107646975 -2.321702295617666 2.033305235311388 232 78 27
-10.945037668259815 -13.254881674127187 2.0333052353113876 60 60 59
-0.40894419482536604 -1.415092760400381 2.033305235311389 232 78 27
-10.403287714036182 -20.532069021539296 -1.7022575660496961 60 60 59
-27.548413103135303 -24.28856926567992 2.033305235311386 60 60 59
8.927680189101025 -2.1357567847534082 -2.0886949821263543 232 78 27
-9.308381860764698 -12.239475542382802 -2.088694982126356 60 60 59
38.509867841688916 17.725350564642344 -2.08869498212635 232 78 27
38.819369489638134 12.860274499578868 1.0028051809519576 232 78 27
-4.588069503815845 31.890320962591563 2.0333052353113885 232 78 27
-1.8629443996269255 33.25014991156617 2.033305235311389 232 78 27
-18.068257158311084 -35.62153893120727 2.0333052353113867 60 60 59
-0.08027250102348571 5.724774545355235 -2.088694982126355 232 78 27
22.141680891005322 -20.414459997491445 2.033305235311392 232 78 27
40.25023954579048 18.412337487860118 1.2604301647394944 232 78 27
24.039462263075634 -18.60791378624877 2.033305235311392 232 78 27
-11.415257280381397 -1.436100775079336 -2.088694982126356 232 78 27
-12.577881639512256 6.872023767156993 2.0333052353113876 232 78 27
32.42539900013618 24.553132241888438 2.033305235311393 232 78 27
16.12761991688423 -10.994787985162343 -0.2853197379857282 232 78 27
-22.89050752452202 11.365525430365 2.0333052353113863 232 78 27
17.8703986949604 -20.947037512139882 -2.0886949821263525 232 78 27
-11.320850198777393 -13.23919468529662 2.0333052353113876 60 60 59
-6.247569387467578 -12.75063210137328 -0.9293824954777963 60 60 59
-6.045381849320606 23.938023751898204 0.22993011038005284 232 78 27
7.804461652724072 -0.31494408257445317 -2.0886949821263543 232 78 27
1.6640164203327155 8.621673768682871 -2.088694982126355 232 78 27
-21.532131975205616 -18.149569326715078 2.0333052353113863 60 60 59
-14.068194215806201 -31.590788656549062 0.10111767809092821 60 60 59
-8.93858510783501 3.0827276169494726 -2.088694982126356 232 78 27
-25.516005342515186 12.715962594671641 -2.088694982126358 232 78 27
-10.133944337876514 7.896524614019786 -1.8310698791295301 232 78 27
-7.085287874253467 -17.07438164360961 1.3892427162379017 60 60 59
6.998649770705029 -3.527327114419546 -2.0886949821263543 232 78 27
-15.826631372483448 -19.535725408868398 -2.088694982126357 60 60 59
-28.41538125804253 13.46102446906129 2.033305235311386 232 78 27
-12.542756860764698 2.7651493012146093 1.5180552081316694 232 78 27
21.036212141005322 14.4137432038025 0.10111767809093243 232 78 27
22.075867826430127 10.994086450262461 -2.0886949821263525 232 78 27
35.42580335804634 15.541745370550547 2.0333052353113934 232 78 27
3.5807277507465343 -7.327600771264638 -2.0886949821263543 232 78 27
-18.774693315537647 -22.857851797418203 -1.8310698791295315 60 60 59
22.19929044911079 -20.16777306206664 -2.0886949821263525 232 78 27
-12.476507013352588 -30.677099996881093 -0.5429448409825579 60 60 59
-24.435757463486866 13.848023599310313 2.0333052353113863 232 78 27
-30.480599229844287 -26.925005728082265 2.0333052353113854 60 60 59
5.604211980788039 2.2893993317321875 -2.0886949821263543 232 78 27
1.3541104144733405 10.087649530096446 -2.088694982126355 232 78 27
-6.372663324387744 33.2107288300232 2.0333052353113885 232 78 27
18.777648145643994 -19.879412466363515 -2.0886949821263525 232 78 27
22.232619459120556 -12.242913061456289 -0.6717573924809666 232 78 27
-17.01410180857964 -18.535100752191152 -2.088694982126357 60 60 59
8.10127371021919 6.994399255438243 -2.0886949821263543 232 78 27
27.03183668324165 18.752930825872813 -2.0886949821263516 232 78 27
-11.424428766282276 5.083727067633067 -2.088694982126356 232 78 27
-10.86285096934624 4.60303992621461 2.0333052353113876 232 78 27
-29.73875886729546 -10.95272522576293 -0.5429448409825601 60 60 59
18.25171201893501 -16.278866583184804 2.033305235311391 232 78 27
35.491896802870556 15.841336435003672 2.0333052353113934 232 78 27
-7.926178281815723 33.94701117865601 -2.088694982126356 232 78 27
-24.609633272202686 -36.3793533385559 -2.088694982126358 60 60 59
28.9889289683979 18.413773721380625 2.0333052353113925 232 78 27
-4.9386943035442386 24.1781475006775 -2.088694982126355 232 78 27
-5.3768819027263675 -5.591913157777395 0.7451801971644156 232 78 27
12.48958700367622 -8.194194609002675 -1.7022575660496935 232 78 27
-31.956631486924366 -31.323851400689687 -1.4446324630528726 60 60 59
33.433226758925244 24.08074302069703 -2.0886949821263507 232 78 27
2.2065164394062013 0.8762356697754003 2.0333052353113894 232 78 27
-10.87138253978081 33.6988994538025 -1.3158201499730364 232 78 27
-9.670304124863819 6.893351739569102 2.033305235311388 232 78 27
-11.516257112534717 -13.425101095513906 -2.088694982126356 60 60 59
-0.11266333392448669 31.9098369538025 -2.088694982126355 232 78 27
3.868118459669873 -9.767725759820546 1.0028051809519534 232 78 27
-2.6365693264324217 23.014210885687266 2.033305235311389 232 78 27
-9.195740526231006 32.891301339788825 -2.088694982126356 232 78 27
-11.933756654771045 4.882523721380625 1.7756802217215284 232 78 27
-7.047881906541065 -12.061600500421132 2.033305235311388 60 60 59
34.505492383925244 19.91749305121461 2.0333052353113934 232 78 27
14.900273496596142 -10.116350942926015 1.9044927285164612 232 78 27
29.49558752247505 16.99602622382203 2.033305235311393 232 78 27
20.084399396864697 9.301713174505625 1.904492728516462 232 78 27
-2.165006881268695 20.068650430365 0.616367645666003 232 78 27
-6.108787839921192 25.37952346198121 2.0333052353113885 232 78 27
-6.983819311173633 -33.64572411187133 0.8739927486628285 60 60 59
24.85071104237251 13.490805810614024 -2.0886949821263516 232 78 27
33.33318250843696 17.48149222724 2.0333052353113934 232 78 27
32.63982313343696 12.840085214300547 -2.0886949821263507 232 78 27
21.161288434950634 -19.6621788085266 2.0333052353113916 232 78 27
-17.152819459946826 -7.330163294152822 -2.088694982126357 60 60 59
17.991835767714306 -19.01627331383666 2.033305235311391 232 78 27
-2.489741271050647 5.448548501654063 2.033305235311389 232 78 27
-4.333928888352588 29.731366342230235 2.0333052353113885 232 78 27
14.264805967299267 9.497962182684336 2.0333052353113907 232 78 27
25.447304899184033 12.072024530096446 -2.0886949821263516 232 78 27
-4.727685039551929 -4.21628540165862 2.0333052353113885 232 78 27
-2.9296787433940916 33.77600974432984 2.033305235311389 232 78 27
24.259555036513134 14.555024331732188 -2.0886949821263516 232 78 27
-10.40985090068169 -2.0083506644531153 0.6163676456660019 232 78 27
-16.101725404771045 -20.49259930260619 -2.088694982126357 60 60 59
16.714617902724072 -20.008225256280507 -1.0581950469762067 232 78 27
-6.417506521256641 -11.251787954644765 -0.8005699439793832 60 60 59
15.934523755995556 -16.649256521539296 1.1316176728457232 232 78 27
-6.307506864579395 24.43364829413453 -0.542944840982557 232 78 27
-21.88319474986382 8.373212045355235 -2.088694982126358 232 78 27
-24.29347497752495 9.44414920203248 2.0333052353113863 232 78 27
4.844922239271925 0.7849618851379492 -2.0886949821263543 232 78 27
-5.471381729157642 8.638680642767344 2.0333052353113885 232 78 27
-27.52316362193413 -31.807226950006093 2.033305235311386 60 60 59
0.3266805953662848 2.345477765722666 -2.088694982126355 232 78 27
32.35729139515571 21.83644599310914 -2.0886949821263507 232 78 27
-12.449006860764698 -20.151257330255117 2.0333052353113876 60 60 59
34.82981794544868 20.98025817267457 -2.0886949821263507 232 78 27
-9.057631795914844 7.481273835821543 2.033305235311388 232 78 27
-15.464381044419483 -7.296100670175161 -2.088694982126357 60 60 59
-4.191678588898853 4.927103227301036 2.0333052353113885 232 78 27
-1.941553717168047 29.66539878241578 -2.088694982126355 232 78 27
-9.742756670029834 -18.968632513360586 -2.088694982126356 60 60 59
-29.02381974986382 -32.35231857903442 -2.0886949821263587 60 60 59
28.71061628529243 17.106053537054454 2.0333052353113925 232 78 27
33.69126051136665 14.725819772406016 2.0333052353113934 232 78 27
-30.49988252452202 -31.36644249566039 2.0333052353113854 60 60 59
-11.392318552048877 5.857962793035899 -2.088694982126356 232 78 27
8.85014837452583 -4.105381900148 2.0333052353113903 232 78 27
39.847968275038525 18.605696862860118 2.033305235311394 232 78 27
-26.624131029160694 -21.139223867730703 2.033305235311386 60 60 59
-5.649757211716846 11.168023294134532 2.0333052353113885 232 78 27
30.345118696181103 24.693335717840586 2.033305235311393 232 78 27
-26.51813203624077 -27.741661840753164 -0.8005699439793859 60 60 59
-8.862100427659229 33.651494210882575 -2.088694982126356 232 78 27
13.274806196181103 -12.791288191155996 -0.800569943979381 232 78 27
4.339086706129834 -4.37406938679656 2.03330523531139 232 78 27
0.9196180648487062 29.68302268378297 1.2604301647394898 232 78 27
-20.022820299180225 -32.543913656549066 0.22993011038005107 60 60 59
3.5116178340595225 -8.406225496606435 -2.0886949821263543 232 78 27
-4.348975484879688 5.1020557343200785 -2.088694982126355 232 78 27
33.77315061756782 24.399369424505625 -2.0886949821263507 232 78 27
-9.924818819077686 -17.873475843743886 2.033305235311388 60 60 59
1.0036181754749274 30.7770244538025 -0.027694873407482876 232 78 27
-4.005631750138477 12.515525048895274 -2.088694982126355 232 78 27
-10.955897157700733 29.301789468450938 2.0333052353113876 232 78 27
29.52911680409126 25.42052382819215 0.10111767809093354 232 78 27
3.8066961116474123 0.005868142767343709 2.0333052353113894 232 78 27
-4.046194379838184 24.142274087591563 2.0333052353113885 232 78 27
-0.052866285355761544 7.099946206732188 2.033305235311389 232 78 27
23.973586255995556 10.620898431463633 -1.444632463052866 232 78 27
9.822868520705029 8.960992044134532 -0.1565074249058951 232 78 27
-32.419880693467334 -29.68185120232543 1.518055208131667 60 60 59
-11.04700738719292 -5.375163132028188 0.22993011038005218 60 60 59
-2.5775927357990285 8.256071275396739 -2.088694982126355 232 78 27
7.084696943251416 0.41393823020020504 2.03330523531139 232 78 27
-1.5554911994058638 -5.303788119630422 2.033305235311389 232 78 27
36.26680677601509 11.65521163336793 -2.0886949821263507 232 78 27
-11.920194452317432 4.9284622132019145 -1.3158201499730364 232 78 27
-5.182288234742359 28.340211099310313 2.0333052353113885 232 78 27
-15.699038332017139 -18.253037267999257 -2.088694982126357 60 60 59
1.5254151172321295 2.1995555817321875 -2.088694982126355 232 78 27
34.17277448841743 10.088820642156993 2.0333052353113934 232 78 27
31.76771085926704 10.748650735540782 2.033305235311393 232 78 27
-12.400006120713428 3.3921491562561132 0.4875550941675886 232 78 27
-26.13238221934624 -11.73497563012084 0.745180197164413 60 60 59
31.22312086292915 23.971680825872813 2.033305235311393 232 78 27
-14.461256807358936 -21.374100500421132 2.033305235311387 60 60 59
2.333117897002027 -4.946975615510251 -2.0886949821263543 232 78 27
-23.74807054332085 9.372336572332774 2.0333052353113863 232 78 27
20.4133674449604 -16.066225820855703 2.0333052353113916 232 78 27
-4.849131887467578 11.206946557684336 -2.088694982126355 232 78 27
4.028618032423779 -4.018475645856466 2.03330523531139 232 78 27
37.25237196156196 14.71950835578004 2.033305235311394 232 78 27
5.90164917179756 2.4631812035278418 -2.0886949821263543 232 78 27
2.2795178241413088 0.8134204804138281 2.0333052353113894 232 78 27
25.07830541798286 19.971524423284922 2.033305235311392 232 78 27
-13.42247468760796 -7.088100725488271 -2.088694982126357 60 60 59
-8.41638166240044 9.589024728460704 -0.2853197379857313 232 78 27
-3.3503819160778074 9.456400102301036 -2.088694982126355 232 78 27
-0.2849288635570555 6.307009881658946 -2.088694982126355 232 78 27
-10.895006959946826 -29.142351919488515 -1.5734450145512835 60 60 59
10.661055738417431 4.625024026556407 0.22993011038005484 232 78 27
-24.25491411021538 9.709868615789805 2.0333052353113863 232 78 27
-1.4339131616670628 9.287617868109141 -2.088694982126355 232 78 27
-0.2279755525905638 -6.89569430954894 -2.088694982126355 232 78 27
3.176399404494093 -8.769084745721425 -2.0886949821263543 232 78 27
-18.089382951768116 -21.357474142388906 2.0333052353113867 60 60 59
25.120368177382275 -14.119475179986562 -0.8005699439793796 232 78 27
-5.958429163010791 3.9732744156555273 2.0333052353113885 232 78 27
0.13766496845893617 6.44008654944459 -2.088694982126355 232 78 27
-5.406647508652881 7.056805795355235 2.0333052353113885 232 78 27
37.299567396132275 16.550851052923594 -2.0886949821263507 232 78 27
-12.308506792100147 -12.639100843743886 -1.5734450145512835 60 60 59
19.84917944142036 -16.86261635430297 2.0333052353113916 232 78 27
-4.972029989274219 2.2890006958679296 -2.088694982126355 232 78 27
-16.20200712016411 -37.89884834893188 -1.831069879129531 60 60 59
-21.10600740245171 -18.25735169060668 2.0333052353113867 60 60 59
17.0760871715229 -15.682412916497793 -2.0886949821263525 232 78 27
-29.04938203624077 10.978024667425547 2.0333052353113854 232 78 27
9.706112081496045 3.697871392889414 2.0333052353113903 232 78 27
-19.664069002183155 10.99996203772584 0.22993011038005107 232 78 27
0.978946144072339 8.895087426824961 2.0333052353113894 232 78 27
10.04511850544624 9.039086526556407 -0.28531973798572907 232 78 27
-24.463257616074756 -6.6727567256256 2.0333052353113863 60 60 59
-11.141069238694385 33.138398355169684 -1.8310698791295306 232 78 27
7.118078405348584 -1.0992880404754541 2.03330523531139 232 78 27
-11.01488191417046 28.22965354315797 -2.088694982126356 232 78 27
-3.966678922684863 -6.688366228417959 -2.088694982126355 232 78 27
-8.143803422959522 2.032032197637949 -2.088694982126356 232 78 27
-1.1556240372974425 -2.2352722228332422 2.033305235311389 232 78 27
22.92733686634712 -20.42250710137328 2.033305235311392 232 78 27
24.24961775013618 20.281024163885508 -1.573445014551279 232 78 27
-9.020694559128955 -17.062069708184804 2.033305235311388 60 60 59
0.8466338462512941 -4.83392872817954 2.0333052353113894 232 78 27
5.741367513624951 -0.5936320365234278 2.03330523531139 232 78 27
-2.369319921048358 -3.2169762194915674 2.033305235311389 232 78 27
7.162532026259228 2.921220010443125 2.03330523531139 232 78 27
2.440000707594679 1.4027282654480078 -2.0886949821263543 232 78 27
4.128024274794386 -5.2128193319602865 -2.0886949821263543 232 78 27
9.72643011280708 1.390930360479746 2.0333052353113903 232 78 27
0.2641414947193117 4.887797540350352 2.0333052353113894 232 78 27
-6.272507017167285 -12.259600454644765 -0.28531973798573085 60 60 59
-16.62919503978081 -6.727538281755056 2.033305235311387 60 60 59
-2.6542177849132567 3.3933612763122656 2.033305235311389 232 78 27
22.1686164683979 10.746461099310313 2.033305235311392 232 78 27
-21.868443315537647 -23.377913290338125 0.22993011038005085 60 60 59
-7.833350484879688 1.8158056198791601 -2.088694982126356 232 78 27
8.980021650282666 3.245011514349375 2.0333052353113903 232 78 27
-8.441943948777393 30.424710458441172 -2.088694982126356 232 78 27
24.99021070667915 13.927617257757579 -2.0886949821263516 232 78 27
-26.7936638050396 -31.500912481622304 2.033305235311386 60 60 59
31.232665235487744 17.989491647406016 -2.0886949821263507 232 78 27
-13.846319978745655 -21.9336631835266 0.22993011038005173 60 60 59
-5.131069486649707 23.127961343450938 2.0333052353113885 232 78 27
-32.062851732285694 -24.26660233147582 1.3892427162378986 60 60 59
-26.556195085557178 -6.895131880120839 -2.088694982126358 60 60 59
0.6356803722064943 28.566773599310313 0.2299301103800535 232 78 27
17.822055036513134 -13.59697514183959 -2.0886949821263525 232 78 27
-9.747194116624073 -2.2692878783508204 1.2604301647394884 232 78 27
-9.966429536851123 33.32079047553101 2.033305235311388 232 78 27
-1.1814756744224577 30.431336587591563 2.033305235311389 232 78 27
-27.500569170029834 11.422711557073985 2.033305235311386 232 78 27
-1.6878506370503454 26.535493081732188 2.033305235311389 232 78 27
-3.583194320710376 27.79825705878297 -2.088694982126355 232 78 27
-1.2635693900901823 28.254151528997813 2.033305235311389 232 78 27
38.80205457874946 22.034024423284922 -2.08869498212635 232 78 27
-3.3832255058605223 2.6651184021667578 2.033305235311389 232 78 27
-10.18674070170708 3.8754074036316015 -2.088694982126356 232 78 27
0.6423055476825685 11.698884195013438 2.0333052353113894 232 78 27
-1.952660506280139 -0.9697363913818262 2.033305235311389 232 78 27
-20.070568864854053 7.796774095220957 -0.6717573924809719 232 78 27
35.874030286757275 10.70126647345582 -2.0886949821263507 232 78 27
-23.878132646592334 13.411275094671641 2.0333052353113863 232 78 27
-10.594944780381397 -12.718507105187978 -2.088694982126356 60 60 59
-2.829225605042651 -5.20170997984847 2.033305235311389 232 78 27
22.504992658583447 -22.146162802056875 0.22993011038005617 232 78 27
-2.475444381745532 23.93414801947633 -0.2853197379857304 232 78 27
-5.2440694027263675 -31.038288885430898 1.6468677000254386 60 60 59
3.000485116926954 -1.9149599612518213 -2.0886949821263543 232 78 27
-1.9322569423038503 6.093039697332774 -2.088694982126355 232 78 27
-0.11089736750908186 -5.47480373986205 2.033305235311389 232 78 27
26.787617856947705 11.197024530096446 -0.28531973798572685 232 78 27
-17.52631933024712 -36.790880972222894 -2.088694982126357 60 60 59
-27.18044359019585 -29.973540121392812 2.033305235311386 60 60 59
-5.86588174632378 7.467274850531016 -2.088694982126356 232 78 27
30.72024458119087 9.61102504126588 -2.0886949821263516 232 78 27
-0.05264765551872497 -0.8796709121032618 -2.088694982126355 232 78 27
-10.856881921799854 32.47777671210328 2.0333052353113876 232 78 27
-17.222318475754932 -33.335818106011956 -2.088694982126357 60 60 59
35.01907270619087 16.213664239569102 2.0333052353113934 232 78 27
4.334588224379345 0.5098859726623632 2.03330523531139 232 78 27
17.997164899794384 -16.148068243341054 -2.0886949821263525 232 78 27
-14.463101213486866 -20.457381063775625 -2.088694982126357 60 60 59
37.196932966200634 23.953648751898204 0.22993011038005795 232 78 27
27.10240095326118 22.464963143988047 2.0333052353113925 232 78 27
25.490554029433056 13.364743417425547 2.033305235311392 232 78 27
39.695571119276806 15.055054849310313 -2.08869498212635 232 78 27
7.045836622206494 4.80883712164918 -2.0886949821263543 232 78 27
22.331164533583447 -15.146210485772695 -2.0886949821263525 232 78 27
28.17214887806587 17.728635018988047 2.0333052353113925 232 78 27
-23.47784883311577 13.115086740179454 2.0333052353113863 232 78 27
-7.495975320847705 10.250743096990977 -0.1565074249058973 232 78 27
-24.507258241685108 -24.394100958184804 0.487555094167587 60 60 59
-23.4043815784771 -31.84685021050414 1.2604301647394867 60 60 59
-12.414756601365283 -1.4076004565521143 -1.3158201499730364 232 78 27
17.760930234877392 -15.973537260369863 -2.0886949821263525 232 78 27
38.61149519154243 16.83727378241578 2.033305235311394 232 78 27
25.359694654433056 -17.110866361932363 -2.0886949821263516 232 78 27
40.04280775257759 17.07930487982789 2.033305235311394 232 78 27
2.7346889323871593 -0.18785076744994145 -2.0886949821263543 232 78 27
-9.640068834336475 -13.549788290338125 2.033305235311388 60 60 59
-16.556506937058643 -7.244350725488271 2.033305235311387 60 60 59
-2.194366341145709 2.8889929711059668 2.033305235311389 232 78 27
-25.316256349595264 11.935086435003672 -2.088694982126358 232 78 27
-14.941881959946826 -36.304974371270745 -2.088694982126357 60 60 59
9.25227468678169 -3.63647549756011 -2.0886949821263543 232 78 27
-30.494194810898975 -27.260351950006093 2.0333052353113854 60 60 59
-3.986623590501025 3.2445947586731054 -2.088694982126355 232 78 27
-17.439631288560108 10.003867334051524 0.3587425426691748 232 78 27
3.2303373164813975 10.594775384588633 -2.0886949821263543 232 78 27
33.612120801893994 11.074025338812266 2.0333052353113934 232 78 27
30.482245618788525 9.474368280096446 0.10111767809093376 232 78 27
-29.8103817158062 -21.09700661309203 2.0333052353113854 60 60 59
-17.55513078502007 -37.99322395928344 0.4875550941675879 60 60 59
19.223132307020947 -19.43992882378539 2.0333052353113916 232 78 27
-8.945896928818897 7.560290521307383 2.033305235311388 232 78 27
8.251008207289502 -3.9663661659522913 2.0333052353113903 232 78 27
-22.731758897813037 -9.563537889794912 0.8739927486628265 60 60 59
4.487743551222607 -3.1659601271911524 2.03330523531139 232 78 27
26.622367078749463 11.296273416204844 -0.542944840982553 232 78 27
-4.919373815568164 1.5343448578552343 -2.088694982126355 232 78 27
-18.920382326157764 8.433461373968516 -2.088694982126357 232 78 27
-5.634132211716846 28.678021615667735 2.0333052353113885 232 78 27
-15.848694627793506 -17.937912756280507 2.033305235311387 60 60 59
-7.676131551774219 8.595835870428477 2.033305235311388 232 78 27
-23.659756486924366 -37.55472832329711 -1.5734450145512848 60 60 59
5.766571218458935 7.956414407415782 2.03330523531139 232 78 27
-1.4270693712551137 5.991555398626719 -2.088694982126355 232 78 27
1.7376651115100836 -1.1674678862853907 -2.088694982126355 232 78 27
-30.065913026841358 -22.513819509820546 -2.0886949821263587 60 60 59
-8.535382097275928 -8.678006941155996 2.033305235311388 60 60 59
-2.2348583393413564 0.5203916489318945 -2.088694982126355 232 78 27
-20.397133653672412 -23.078474813775625 -1.0581950469762111 60 60 59
3.0290872401874513 11.291993325872813 -0.9293824954777954 232 78 27
10.048493558852002 -1.7404754699035547 1.518055208131672 232 78 27
-26.917258089097217 -12.40866308815917 -0.8005699439793859 60 60 59
6.33577364155464 2.7595560013488867 -2.0886949821263543 232 78 27
-16.266444032700733 9.541024392767344 -0.2853197379857322 232 78 27
-4.1601319961864505 14.92915076605836 2.0333052353113885 232 78 27
10.270617658583447 0.41164941184083004 -0.28531973798572907 232 78 27
-23.722445314439014 -34.14475899346313 2.0333052353113863 60 60 59
-0.3819599800426512 8.10776633612672 2.033305235311389 232 78 27
23.01755445667915 -17.551007086114492 2.033305235311392 232 78 27
4.1911956615131345 1.2677747666076757 2.03330523531139 232 78 27
22.220446760145947 -17.496226126031484 2.033305235311392 232 78 27
-29.377693956406787 -33.08997612603149 -2.0886949821263587 60 60 59
-26.70428926280327 9.82055587164918 2.033305235311386 232 78 27
34.90111845204048 9.839711373968516 -0.28531973798572596 232 78 27
-5.954569643052295 23.629025643988047 1.2604301647394889 232 78 27
-24.864224260361866 -24.39263229973754 2.0333052353113863 60 60 59
-0.9613818579036741 -7.396475607232656 2.033305235311389 232 78 27
26.61150663563423 16.456118768377696 -2.0886949821263516 232 78 27
-4.830632036240772 18.76083678595582 1.7756802217215293 232 78 27
23.31729047962837 -15.175772482232656 -2.0886949821263525 232 78 27
26.918429548231884 11.103024667425547 -1.8310698791295257 232 78 27
36.1738654918354 11.03189963690797 2.0333052353113934 232 78 27
-28.23700410655327 -11.730037981347646 -0.6717573924809728 60 60 59
23.532305891005322 10.794899171514903 2.033305235311392 232 78 27
-8.595069234879688 -15.235943609551992 2.033305235311388 60 60 59
16.976245099989697 -20.22010117180785 -2.0886949821263525 232 78 27
36.12639539906196 15.11916655890504 2.0333052353113934 232 78 27
16.484179670302197 -15.235037618951406 2.033305235311391 232 78 27
-12.846601312668994 -11.252412611322011 0.6163676456660017 60 60 59
-6.674131696732715 31.521119302435313 2.0333052353113885 232 78 27
-8.816210573228076 1.1442429482177832 2.033305235311388 232 78 27
3.594125921217725 1.4309541641906836 2.0333052353113894 232 78 27
38.44175642201118 19.959883874578868 -2.08869498212635 232 78 27
18.774039442030713 -15.75433426506957 -2.0886949821263525 232 78 27
22.57449262806587 -13.68753796227416 2.033305235311392 232 78 27
-2.424887960465625 -1.097893053369131 2.033305235311389 232 78 27
24.090819532362744 -17.216490560845937 -2.0886949821263516 232 78 27
25.546961957899853 11.575524514837657 2.033305235311392 232 78 27
7.459774190871045 6.916180795355235 2.03330523531139 232 78 27
-8.551694696458057 -1.9230540335937403 2.033305235311388 232 78 27
37.9665901012104 21.15277594916383 2.033305235311394 232 78 27
8.330992872206494 -3.137975627259817 2.0333052353113903 232 78 27
-9.888850992234424 6.7524301468567 2.033305235311388 232 78 27
0.9664933032672858 31.179776376409922 -1.5734450145512817 232 78 27
23.052664930311963 -19.271287733392324 -2.0886949821263525 232 78 27
-3.604296033890918 9.525242990179454 -2.088694982126355 232 78 27
-20.60463029673882 -8.331350618676748 -2.088694982126358 60 60 59
-30.231819932969287 -10.528162771539296 -2.0886949821263587 60 60 59
-1.8606239610034963 0.5229932724670507 -2.088694982126355 232 78 27
9.038368398634717 7.532524293585215 -2.0886949821263543 232 78 27
-28.40063173106499 -11.645600611047353 1.7756802217215264 60 60 59
-12.588163202317432 -35.87303810723266 2.0333052353113876 60 60 59
-4.133881872208789 -8.33347564347228 -0.027694873407483764 232 78 27
-27.177227800400928 -9.229038053826894 2.033305235311386 60 60 59
-25.113444154771045 -6.948694282846059 2.0333052353113863 60 60 59
27.34289854237251 14.866070932073985 -2.0886949821263516 232 78 27
-6.731069391282276 -16.20763188012084 -1.4446324630528695 60 60 59
-22.377882783921436 -6.062069350556936 -2.088694982126358 60 60 59
-17.35488206675835 -6.302975708322133 2.033305235311387 60 60 59
-10.90110666087456 -5.454911792354192 1.2608052567690597 60 60 59
-2.2416319303829213 14.124024575872813 -2.088694982126355 232 78 27
-11.542007272752002 2.3723208367065527 2.0333052353113876 232 78 27
-12.473224466355518 3.091180032415781 -0.9293824954777972 232 78 27
-27.450196092637256 -28.185225302056875 2.033305235311386 60 60 59
-9.546381776841358 29.265900796575938 -2.088694982126356 232 78 27
29.33286779591255 25.348336404486094 0.8739927486628329 232 78 27
-4.1633036785442386 30.4781963288025 -2.088694982126355 232 78 27
-5.476194446595386 28.622773355169688 2.0333052353113885 232 78 27
23.391493970839306 15.624648278875743 -2.0886949821263525 232 78 27
38.192538434950634 13.12591475836793 -2.0886949821263507 232 78 27
9.328259641615674 2.9807002007202246 2.0333052353113903 232 78 27
-1.7892649524528532 -1.248694473580923 2.033305235311389 232 78 27
25.31474226185493 15.86814994208375 -2.0886949821263516 232 78 27
-14.594006364854053 -34.61078911431274 2.033305235311387 60 60 59
12.261993581740185 5.574429696722422 1.904492728516461 232 78 27
-24.88725740245171 9.00805587164918 -2.088694982126358 232 78 27
40.2648078746479 17.18408698432008 0.2299301103800584 232 78 27
-26.133129900010303 -20.611662679986562 -2.088694982126358 60 60 59
-7.060428445847705 25.369834130926524 -2.088694982126356 232 78 27
27.737446958510205 14.379571145697032 -2.0886949821263516 232 78 27
-9.556538408311084 -7.020475679711904 -2.088694982126356 60 60 59
-8.068490808518604 28.356446450872813 -2.088694982126356 232 78 27
-32.089600389512256 -30.289881521539296 2.0333052353113854 60 60 59
-14.120381181748584 -4.183475607709493 -0.027694873407484652 60 60 59
-27.996161287339405 -32.39041405327758 -2.0886949821263587 60 60 59
-1.719569390328601 17.25970954291383 -0.2853197379857304 232 78 27
-12.812882249863819 -21.603976064996328 1.5180552081316694 60 60 59
40.112929517714306 19.117711251898204 -1.3158201499730302 232 78 27
6.295205289809033 1.6499878822998144 2.03330523531139 232 78 27
-18.241131608994678 -18.383414083795156 2.0333052353113867 60 60 59
-21.51731759837456 -32.369475179986566 -1.4446324630528713 60 60 59
-3.8793972187358885 5.380852883978282 2.0333052353113885 232 78 27
-13.23138124278374 -4.448944324330892 -0.9293824954777972 60 60 59
0.757024461714551 8.838204568548594 2.0333052353113894 232 78 27
-25.423443620713428 -37.05737953789672 -1.9598824306279454 60 60 59
-1.551756886454299 25.61152381293336 0.4875550941675899 232 78 27
-4.018475597413257 30.851945108099375 2.0333052353113885 232 78 27
2.5930554217975588 -8.159288221673574 2.0333052353113894 232 78 27
-19.484600847275928 -22.950787359551992 0.10111767809092755 60 60 59
-9.623444383652881 31.245179361029063 -2.088694982126356 232 78 27
-12.118569200547412 5.339148706121836 2.0333052353113876 232 78 27
26.1737434215229 17.59039992682496 -2.0886949821263516 232 78 27
16.334399396864697 -17.099537664727773 2.033305235311391 232 78 27
-0.6804130726177244 13.048932260198985 -1.7022575660496952 232 78 27
-28.60956842234917 -11.374788099603261 -2.0886949821263587 60 60 59
7.423594648329541 2.187070077581797 2.03330523531139 232 78 27
7.795602971998974 -4.00249122984847 2.0333052353113903 232 78 27
34.244574720351025 14.80108565680543 2.0333052353113934 232 78 27
24.137526685683056 -15.210600668267812 -2.0886949821263516 232 78 27
-26.32003862193413 11.667805856390391 -2.088694982126358 232 78 27
-24.55385095408745 -24.42100792534789 1.1316176728457183 60 60 59
-3.3972569160778074 5.275681680365 -2.088694982126355 232 78 27
20.649773771254345 -16.035569006280507 -2.0886949821263525 232 78 27
6.2340242213886246 8.118851846380625 -2.0886949821263543 232 78 27
33.58274000355415 15.950150674505625 -2.0886949821263507 232 78 27
-16.531381433518604 9.637024110479746 1.518055208131669 232 78 27
-4.136428659470752 -1.3098974765106104 2.0333052353113885 232 78 27
-23.758007829697803 10.519837564154063 2.0333052353113863 232 78 27
11.789117986647412 -11.341725641564931 1.0028051809519543 232 78 27
22.126242811171338 -21.58791237481078 2.033305235311392 232 78 27
-26.698506181748584 -12.476975733117666 -1.5734450145512853 60 60 59
-11.243882005723194 6.442524140997325 -2.088694982126356 232 78 27
-18.31716234019585 7.361649697943125 1.9044927285164572 232 78 27
-0.917631929429247 4.783922380133067 -2.088694982126355 232 78 27
27.356209928480908 14.686446374578868 -2.0886949821263516 232 78 27
17.26636808582954 12.24165076605836 -1.831069879129527 232 78 27
23.810181791273877 -17.985882574395742 -2.0886949821263516 232 78 27
-8.573538129838184 28.942650979681407 2.033305235311388 232 78 27
17.58050840565376 -15.945147329644765 -2.0886949821263525 232 78 27
-2.052897518189624 36.01863211981812 2.033305235311389 232 78 27
5.901649648634718 5.753180688543711 -2.0886949821263543 232 78 27
-0.5976866536457082 7.318820184393321 -2.088694982126355 232 78 27
-1.0980381124336271 32.78696174017945 2.033305235311389 232 78 27
17.962742979018017 -12.761100584344472 2.033305235311391 232 78 27
-2.897538011582568 33.470132058782966 -2.088694982126355 232 78 27
-5.28331953814812 -3.2868506253524683 2.0333052353113885 232 78 27
-1.2340068869907408 29.149930185003672 2.033305235311389 232 78 27
25.88586729237251 15.385041421575938 -2.0886949821263516 232 78 27
18.723618680922314 -21.82597618706664 0.7451801971644185 232 78 27
25.929869825331494 -15.72966271050414 -0.8005699439793792 232 78 27
34.769240552870556 23.087479776068125 -2.0886949821263507 232 78 27
36.661742383925244 18.07122725836793 -2.0886949821263507 232 78 27
-10.469194238694385 -14.203224951104726 2.033305235311388 60 60 59
-29.799256151231006 -20.834444814996328 0.6163676456659994 60 60 59
-27.86963159373589 13.992085641546641 -0.2853197379857335 232 78 27
6.380617792097851 4.531258767767344 2.03330523531139 232 78 27
24.202868635145947 -16.60872536309203 2.033305235311392 232 78 27
-10.000319307358936 -27.646101766900625 0.22993011038005218 60 60 59
39.98219602772407 16.96554107062379 2.033305235311394 232 78 27
-0.9708819442111989 30.697022622747813 -2.088694982126355 232 78 27
-14.366381471665576 -9.103725725488271 -2.088694982126357 60 60 59
-16.074414079697803 -17.628037267999257 -2.088694982126357 60 60 59
-31.60113221934624 -32.130724722222894 -0.027694873407486872 60 60 59
-10.924162691147998 27.987809365911875 -2.088694982126356 232 78 27
1.6722354240100832 0.6320325791076757 2.0333052353113894 232 78 27
-2.810053771050647 35.596833413763434 2.033305235311389 232 78 27
-9.520506685288623 26.095853036566172 -2.088694982126356 232 78 27
16.955119306532666 -18.062912756280507 -2.0886949821263525 232 78 27
9.996055776564404 -7.153975778894033 -2.0886949821263534 232 78 27
34.519118482558056 9.869836038275157 -2.0886949821263507 232 78 27
-18.62610132029839 -36.156977468804925 -2.088694982126357 60 60 59
-1.4275928490478536 8.33615702979127 -2.088694982126355 232 78 27
22.439086133925244 13.701337045355235 -2.0886949821263525 232 78 27
-6.84344465068169 26.23488349310914 -2.088694982126356 232 78 27
35.492804700819775 22.095273202581797 -2.0886949821263507 232 78 27
27.403338605849072 17.434369271917735 2.0333052353113925 232 78 27
-9.47388202479668 -8.66844444878539 -2.088694982126356 60 60 59
-24.908509080918506 -22.969851309136953 -2.088694982126358 60 60 59
0.7370008773487067 10.406657403631602 -2.088694982126355 232 78 27
-5.028960054429248 27.909474557562266 2.0333052353113885 232 78 27
9.110516721693799 2.7501027046875097 2.0333052353113903 232 78 27
6.700430089918896 -3.3444756806655787 2.03330523531139 232 78 27
37.87661665150337 11.717024987860118 -0.027694873407478435 232 78 27
-4.237881963761524 12.923649972601329 0.7451801971644159 232 78 27
4.698672468153761 3.4768287598327734 -2.0886949821263543 232 78 27
38.253119642226025 18.21714896552125 2.033305235311394 232 78 27
24.181618864027783 -13.16497593529662 -1.315820149973032 232 78 27
7.800618345228955 -4.449788087682332 -2.0886949821263543 232 78 27
8.655163938490674 2.3227502762512304 2.0333052353113903 232 78 27
9.979305440871045 -2.0433195174499414 -1.1870075984746207 232 78 27
21.006259138075634 -20.510786825494375 -2.0886949821263525 232 78 27
2.4325396365802745 -5.632678681687917 -2.0886949821263543 232 78 27
28.001681501356884 10.384431070013438 1.6468677000254426 232 78 27
-19.024380510361866 -37.18797951348266 2.0333052353113867 60 60 59
-20.22438127330132 9.416024392767344 -2.088694982126358 232 78 27
-23.108506029160694 -31.961287313775625 0.7451801971644134 60 60 59
-28.552132432969287 -31.025099569635 2.033305235311386 60 60 59
-7.547405069382862 -2.507413202600088 -2.088694982126356 232 78 27
12.051867658583447 9.036586946173106 -2.0886949821263534 232 78 27
21.850417310683056 -14.91369419701537 -2.0886949821263525 232 78 27
35.49266737171821 15.259556955023204 2.0333052353113934 232 78 27
7.760773832289502 -0.583038145379629 2.0333052353113903 232 78 27
-26.77713090709038 -30.31853752739867 -2.088694982126358 60 60 59
-29.536757295640186 -30.21197586663207 2.0333052353113854 60 60 59
-4.831006830247119 32.30177420966187 2.0333052353113885 232 78 27
-11.428545778306201 4.701165383978282 -2.088694982126356 232 78 27
-2.8158038311321287 2.627539819403086 2.033305235311389 232 78 27
11.704867536513134 -11.26235085137328 0.48755509416759146 232 78 27
-2.077756886990741 34.629616922064216 2.033305235311389 232 78 27
0.3704382724445314 4.400750344915782 2.0333052353113894 232 78 27
23.993931943861767 -21.433819586114492 -1.187007598474619 232 78 27
-8.38931924632378 30.413521951361094 -2.088694982126356 232 78 27
5.5629984683673825 1.2099019943908789 2.03330523531139 232 78 27
7.513617689101025 -3.0589755118652247 -2.0886949821263543 232 78 27
-24.087008302720264 -22.95903854973754 2.0333052353113863 60 60 59
2.112864667860791 -0.7089822829528711 2.0333052353113894 232 78 27
24.730883771864697 16.661618417425547 -2.0886949821263516 232 78 27
-11.40360147288628 -16.453225904779043 2.0333052353113876 60 60 59
0.5131022281330084 6.489071077032481 -2.088694982126355 232 78 27
-2.2663819246608763 25.147023385687266 1.0028051809519527 232 78 27
-21.096382921250537 -36.23297768242797 -2.088694982126358 60 60 59
-17.655381029160694 -32.51297646172485 1.5180552081316687 60 60 59
-15.182381456406787 -6.678475672082509 2.033305235311387 60 60 59
-10.943724458726123 -13.140257650689687 2.0333052353113876 60 60 59
25.633368665663525 14.185149377508555 -2.0886949821263516 232 78 27
-11.546701257737354 4.3276416718200785 -2.088694982126356 232 78 27
15.077681714979931 -14.735289388970937 -0.9293824954777936 232 78 27
-22.255661790879444 -32.21497612603149 1.3892427162378997 60 60 59
34.52761762806587 9.70977420203248 -1.0581950469762045 232 78 27
29.790179426161572 12.64371032111207 2.033305235311393 232 78 27
-26.46225625804253 -26.91272621758422 0.745180197164413 60 60 59
27.17727583119087 18.332787698431407 2.0333052353113925 232 78 27
24.632586652724072 18.607632821722422 2.033305235311392 232 78 27
-21.92705232432671 -23.199305349664296 -2.088694982126358 60 60 59
-4.513553445847705 35.29881781928101 2.0333052353113885 232 78 27
0.5472747630756349 -0.841686540917959 2.0333052353113894 232 78 27
0.7907432861011476 7.619914239569102 2.0333052353113894 232 78 27
-24.53838044932671 -33.209725195245355 -2.088694982126358 60 60 59
-10.678733652146533 2.1402198731140234 -2.088694982126356 232 78 27
-7.483537500413135 2.9235479294494726 -2.088694982126356 232 78 27
-26.497631853135303 -27.150976950006093 0.4875550941675868 60 60 59
-5.650381868394092 23.363461679144297 -2.088694982126356 232 78 27
-11.575163667710498 -14.666662985162343 -2.088694982126356 60 60 59
-2.1497179322559377 8.73633021704713 -2.088694982126355 232 78 27
-6.167819326432422 33.05208701483765 2.0333052353113885 232 78 27
-21.897320573838428 -34.221226507501214 2.0333052353113863 60 60 59
2.490930730788038 9.30633754126588 -2.0886949821263543 232 78 27
-30.823384111436084 -21.923350149468984 -1.4446324630528726 60 60 59
-7.996881311448291 -14.18484955437621 -2.088694982126356 60 60 59
17.448119337050244 -11.86347561486205 1.518055208131673 232 78 27
-3.211616223366931 -6.736897522286977 -2.088694982126355 232 78 27
-11.135193651231006 -13.30516319878539 2.0333052353113876 60 60 59
0.9465166873615241 3.9415008484558203 -2.088694982126355 232 78 27
-31.031380479844287 -22.17835121758422 0.10111767809092621 60 60 59
13.882023984877392 -13.41772537835082 1.1316176728457228 232 78 27
22.56457060047798 -14.99011593468627 -2.0886949821263525 232 78 27
-5.609311883958057 0.1454851090149023 2.0333052353113885 232 78 27
-3.51963168910332 1.209047979040537 -2.088694982126355 232 78 27
-24.154133623154834 -24.20047455437621 0.22993011038005062 60 60 59
30.374776060072705 18.304400628729258 -2.0886949821263516 232 78 27
26.53018110462837 11.291337197943125 -0.28531973798572685 232 78 27
20.100743467299267 -12.40353851921996 -2.0886949821263525 232 78 27
-22.408068483384326 -22.529661947564687 -2.088694982126358 60 60 59
-27.536507432969287 -9.838475996331777 -2.0886949821263587 60 60 59
-31.166382616074756 -9.244975382165517 -0.027694873407486872 60 60 59
23.559102231947705 -17.22996025689086 2.033305235311392 232 78 27
-26.482693498643116 -5.052600608841981 1.9044927285164561 60 60 59
-2.870616262467578 0.8850795685485937 -2.088694982126355 232 78 27
-9.958006685288623 -7.63083081849059 2.033305235311388 60 60 59
-1.6777568363267918 29.79633826605836 -2.088694982126355 232 78 27
25.17005460926704 -20.25678902276 0.7451801971644194 232 78 27
-0.29249126246757795 6.93724173895875 -2.088694982126355 232 78 27
30.090556318251416 25.578961557073985 1.2604301647394933 232 78 27
-10.379475420029834 5.758492654486094 2.033305235311388 232 78 27
-3.848256891282275 34.07152671210328 2.0333052353113885 232 78 27
17.860993558852 -12.122600370721425 -2.0886949821263525 232 78 27
-24.016037767441944 -34.309727484063714 -2.088694982126358 60 60 59
-7.273522680314258 6.052165216131602 2.033305235311388 232 78 27
22.302619153944775 15.252024835272227 -1.573445014551279 232 78 27
27.25860136219673 11.611195748968516 2.0333052353113925 232 78 27
-12.406506364854053 -12.220350557641591 -1.3158201499730364 60 60 59
-8.205382173569873 30.065587228460704 -2.088694982126356 232 78 27
-24.008946245225147 -35.86063271172485 2.0333052353113863 60 60 59
-2.233942573579028 -2.9670969785018824 2.033305235311389 232 78 27
1.3584234065692873 -1.0568419040008448 2.0333052353113894 232 78 27
34.787177259413525 24.888882821722422 2.0333052353113934 232 78 27
-27.128945177109912 -11.030788236932363 -2.0886949821263587 60 60 59
-20.815693681748584 -21.923819357232656 -2.088694982126358 60 60 59
34.61923902699165 17.556962197943125 2.0333052353113934 232 78 27
-15.992630785020069 -32.237849050836175 1.518055208131669 60 60 59
26.222806150404736 11.574212258978282 2.0333052353113925 232 78 27
7.4652435130756345 -3.1019756139083765 -2.0886949821263543 232 78 27
-7.276881998093799 29.22346228949586 2.033305235311388 232 78 27
-9.03117830088921 35.0759632050232 -2.088694982126356 232 78 27
-13.711256807358936 -35.2859752715393 2.0333052353113876 60 60 59
27.761454755751416 24.14769667975465 -2.0886949821263516 232 78 27
-1.5251787059623747 2.1088287293151953 2.033305235311389 232 78 27
-0.317381923707202 -10.933975511865224 -1.315820149973035 232 78 27
-6.092116182358936 32.46899527899781 -2.088694982126356 232 78 27
-12.17313272288628 -6.17275684483489 2.0333052353113876 60 60 59
-5.208538120301441 32.801213449163825 -2.088694982126355 232 78 27
28.323241407362744 15.644149011297618 -2.0886949821263516 232 78 27
10.288961584059521 4.390462106390391 -1.959882430627941 232 78 27
7.992930585829541 6.596900170965586 -2.0886949821263543 232 78 27
-0.7944755010921498 0.9164621292785742 -2.088694982126355 232 78 27
-1.9533819012958555 28.91133612982789 2.033305235311389 232 78 27
-6.779475515397266 32.0676509796814 -2.088694982126356 232 78 27
-22.227944200547412 -23.471224600152578 -1.959882430627945 60 60 59
-19.19488221934624 7.587023919744883 -2.088694982126357 232 78 27
3.0806571788471193 3.346501535101328 2.0333052353113894 232 78 27
-19.145258729966358 -8.061694437341298 -2.088694982126357 60 60 59
-28.93188173106499 11.73758811347047 2.0333052353113854 232 78 27
-8.411069696458057 1.740368074102793 2.033305235311388 232 78 27
-9.896756952317432 -33.36347466118774 -2.088694982126356 60 60 59
33.5082275218647 14.027226632757579 2.0333052353113934 232 78 27
-9.956351106675342 2.8451644837097265 -2.088694982126356 232 78 27
-27.749537294419483 -32.11563187249145 -2.0886949821263587 60 60 59
28.844788724867627 13.801102822943125 -2.0886949821263516 232 78 27
8.66999357411079 -6.961475664453115 -2.0886949821263543 232 78 27
-1.9965069048721342 31.271180337591563 2.033305235311389 232 78 27
7.578696424452588 -2.6393819392486475 -2.0886949821263543 232 78 27
20.39496153065376 14.012929147406016 -1.9598824306279397 232 78 27
14.168118650404736 -9.557225996331777 1.7756802217215317 232 78 27
6.39051645466499 9.019017404241954 2.03330523531139 232 78 27
20.44858473011665 -20.313147360162343 2.0333052353113916 232 78 27
-8.246490781815723 33.94047660224 2.033305235311388 232 78 27
-26.87375528148003 12.914117044134532 -2.088694982126358 232 78 27
22.03110426136665 -17.635021978692617 2.033305235311392 232 78 27
26.02686613270454 -16.091881567315664 1.1316176728457243 232 78 27
-27.419976060898975 -12.151600653009023 1.3892427162378993 60 60 59
24.37783735462837 15.207120126409922 2.033305235311392 232 78 27
-6.510882204087451 -14.430849844293203 2.0333052353113885 60 60 59
-18.42519456675835 -34.434286886529534 -2.088694982126357 60 60 59
-18.552319353135303 -33.57910042412719 2.0333052353113867 60 60 59
-9.303069417985157 -19.791350179986562 -1.7022575660496961 60 60 59
3.293665105788038 2.3600713669494726 -2.0886949821263543 232 78 27
7.906899625746533 -8.116444403009023 0.10111767809093088 232 78 27
-15.660350626023487 -34.09866409905395 2.033305235311387 60 60 59
-28.56416398814507 9.708117669744883 0.10111767809092644 232 78 27
-12.334194963486866 1.2479774414733984 2.0333052353113876 232 78 27
23.724993879286572 16.254586404486094 0.2299301103800564 232 78 27
-3.992381876023486 -9.02975683815917 1.389242716237902 232 78 27
4.760297948805615 2.806657022161875 2.03330523531139 232 78 27
31.917929822890088 9.321181482000743 -0.15650742490589242 232 78 27
-12.151382272752002 -1.475975567178335 0.4875550941675886 232 78 27
-5.0452569179851565 37.032021707220466 -0.8005699439793832 232 78 27
19.196288282362744 -12.85680418618163 2.0333052353113916 232 78 27
31.891322309462353 11.204930490179454 2.033305235311393 232 78 27
-18.002693956406787 -22.754725271539296 -1.8310698791295315 60 60 59
-0.004186814339831368 -2.0276787818237207 2.033305235311389 232 78 27
-7.113881891282276 26.910742944403086 -2.088694982126356 232 78 27
-12.605881517441944 -14.631476217584218 -1.0581950469762103 60 60 59
4.948930913893506 -4.9792256072922605 2.03330523531139 232 78 27
-9.693787401231006 8.385899728460704 1.6468677000254381 232 78 27
-1.703506884785368 17.17114753119508 -2.088694982126355 232 78 27
-3.539194529565051 16.218087381048594 -2.088694982126355 232 78 27
0.4974538631122565 10.67411155097047 -2.088694982126355 232 78 27
-24.955694978745655 9.013743585272227 -2.088694982126358 232 78 27
-11.187506502183155 28.36546439520875 -1.8310698791295306 232 78 27
-21.94575578502007 -21.239975744561757 2.0333052353113863 60 60 59
-6.945249383958057 10.01499289862672 -2.088694982126356 232 78 27
23.094805891005322 -21.93803673394164 -1.315820149973032 232 78 27
0.06120413014106463 2.5846259056762793 2.033305235311389 232 78 27
0.1264931506793947 -4.975350619928445 2.033305235311389 232 78 27
3.7168528384845705 -0.20818691857298832 2.0333052353113894 232 78 27
-24.852883165391162 -6.643350535707082 2.0333052353113863 60 60 59
26.393431837050244 17.002709573431407 2.0333052353113925 232 78 27
31.089965040175244 25.607213205023204 2.033305235311393 232 78 27
28.197806531874463 23.299212640448008 2.0333052353113925 232 78 27
35.97639768788032 18.668790048284922 2.0333052353113934 232 78 27
0.020204002348706673 6.2471267639831645 -2.088694982126355 232 78 27
0.448493177382276 11.984273141546641 -1.5734450145512817 232 78 27
-2.0722256355602293 31.56352347724 2.033305235311389 232 78 27
31.786898786513134 12.423276132269297 -2.0886949821263507 232 78 27
-2.574398880513385 -2.9043849051757715 2.033305235311389 232 78 27
-4.677788084061817 32.29115409247437 -2.088694982126355 232 78 27
-2.354975646050647 -8.871038013772573 2.033305235311389 232 78 27
37.53905409046821 23.50589866034547 -2.0886949821263507 232 78 27
2.2865788287799806 5.040493196173106 2.0333052353113894 232 78 27
35.4758674449604 14.029338067694102 2.0333052353113934 232 78 27
9.406024152724072 -3.0008819640441797 -2.0886949821263534 232 78 27
-27.58388025096245 -31.443600469903554 2.033305235311386 60 60 59
-27.60760194590874 -29.403757864312734 2.033305235311386 60 60 59
-8.086834733994678 31.699525064154063 2.033305235311388 232 78 27
-18.030037706406787 -18.697131925897207 -2.088694982126357 60 60 59
24.609618360487744 21.155024713201914 -0.2853197379857273 232 78 27
-24.704882448228076 -32.20825844414672 2.0333052353113863 60 60 59
-2.1092256360370665 29.15508384100953 2.033305235311389 232 78 27
-5.537006681473926 22.10658759467164 -1.7022575660496957 232 78 27
23.97405546375923 -18.703944975213613 2.033305235311392 232 78 27
-28.49335176280327 -29.008570486383046 -2.0886949821263587 60 60 59
1.6899852103870363 6.012281602545176 2.0333052353113894 232 78 27
-22.814507310898975 -5.6435380519195455 -2.088694982126358 60 60 59
-4.237632101090625 12.906962579412852 -0.15650742490589686 232 78 27
5.733680421797558 -0.46406918175658207 2.03330523531139 232 78 27
-26.772881334336475 -12.482225710229482 1.0028051809519496 60 60 59
-20.689007585557178 -32.844477468804925 -2.088694982126358 60 60 59
-11.312068765671924 32.67796439520875 1.1316176728457197 232 78 27
-2.211881881268695 -10.36347561486205 2.033305235311389 232 78 27
0.10282891461066956 5.954735940618907 -2.088694982126355 232 78 27
-13.546162431748584 -6.675850683526601 2.0333052353113876 60 60 59
3.458961660353467 -4.881350615696515 2.0333052353113894 232 78 27
-11.754756753953174 -15.049069219903554 2.0333052353113876 60 60 59
-9.96420938304253 5.969680017156993 2.033305235311388 232 78 27
24.48774259754829 15.275992578192149 -2.0886949821263516 232 78 27
4.990243131605908 10.104743188543711 2.03330523531139 232 78 27
