ply
format ascii 1.0
element vertex 713
property float x
property float y
property float z
property uchar red
property uchar green
property uchar blue
end_header
17.552406311035156 -21.832248687744137 -0.2576248645782453 232 78 27
-16.404501914978027 -7.410248756408688 -2.0610001087188747 60 60 59
-2.502548217773437 9.844626426696781 2.061000108718872 232 78 27
-22.01125144958496 -4.9058425128459895 2.0610001087188694 60 60 59
-27.395782470703125 -31.466062545776364 2.0610001087188685 60 60 59
-22.285127639770508 -36.674312591552734 -2.0610001087188747 60 60 59
-16.56972026824951 1.2645015716552765 -0.7728750705719016 232 78 27
-1.28296947479248 9.894204139709476 2.061000108718872 232 78 27
-25.753908157348633 -31.784687042236328 -0.5152499675750768 60 60 59
-34.442283630371094 -31.494747161865234 2.0610001087188676 60 60 59
-23.916656494140625 -8.442561149597164 1.545750081539151 60 60 59
2.6447792053222656 -0.888686180114743 -2.061000108718872 232 78 27
-13.75456428527832 -16.52324771881103 2.0610001087188703 60 60 59
17.675029754638672 -13.282185554504391 -2.0610001087188703 232 78 27
23.855981826782227 12.3226432800293 2.0610001087188747 232 78 27
-11.358845233917236 -8.755623817443844 -2.061000108718874 60 60 59
-14.235719680786133 -28.53656196594238 -2.061000108718874 60 60 59
19.66827964782715 -21.228000640869137 -0.7728750705718972 232 78 27
21.887062072753906 -18.746437072753903 1.4169375896453882 232 78 27
17.98751449584961 -15.85924911499023 -2.0610001087188703 232 78 27
27.073902130126953 13.183502197265629 2.0610001087188756 232 78 27
-5.984845280647276 -8.456561088562008 -2.061000108718873 232 78 27
22.863216400146484 22.2259693145752 -2.0610001087188694 232 78 27
-4.965962767601013 -0.13007593154906916 2.061000108718871 232 78 27
19.699153900146484 -18.86718654632568 -2.0610001087188703 232 78 27
24.710403442382812 10.60837554931641 0.7728750705719023 232 78 27
-32.292564392089844 -31.359748840332028 2.0610001087188685 60 60 59
31.128589630126953 25.756938934326175 3.566591466608315e-15 232 78 27
29.53101348876953 12.762235641479496 -2.0610001087188685 232 78 27
0.48940467834472656 2.0004072189331086 2.061000108718872 232 78 27
5.549030303955078 -1.3306236267089813 -2.061000108718871 232 78 27
-30.564908981323242 8.858188629150394 0.7728750705718954 232 78 27
-12.080000877380371 7.41250038146973 2.0610001087188703 232 78 27
33.50759506225586 21.52331352233887 -2.0610001087188685 232 78 27
30.320873260498047 20.181751251220707 -2.0610001087188685 232 78 27
26.091636657714844 14.506532669067386 -2.0610001087188694 232 78 27
-16.256563186645508 -20.96218681335449 0.9016876220703103 60 60 59
-13.572782516479492 -26.99543762207031 1.8033750951290113 60 60 59
-27.844844818115234 8.962188720703129 0.7728750705718959 232 78 27
-20.24772071838379 -17.19556140899658 -2.0610001087188747 60 60 59
-24.49372100830078 -3.1259987354278533 -0.5152499675750764 60 60 59
-15.803657531738281 5.294813156127933 -0.7728750705719016 232 78 27
-29.415376663208008 -18.058748245239254 -1.4169375896453897 60 60 59
-15.295157432556152 -16.531404495239254 2.0610001087188703 60 60 59
20.551498413085938 14.574687957763675 2.0610001087188747 232 78 27
-15.076532363891602 33.04762649536133 -2.061000108718874 232 78 27
-19.21446990966797 -37.28121566772461 1.1593125462532017 60 60 59
-5.932595193386078 29.672843933105472 2.061000108718871 232 78 27
0.47297477722168146 -2.007326841354367 -2.061000108718872 232 78 27
-2.6514077186584464 -0.6050610542297332 -2.061000108718873 232 78 27
-28.397907257080078 -22.804748535156246 -2.0610001087188756 60 60 59
-7.048657774925232 19.144065856933597 -2.061000108718873 232 78 27
-14.198814392089844 4.1705322265625036 2.0610001087188703 232 78 27
0.9726705551147479 7.986421585083011 -2.061000108718872 232 78 27
-28.229938507080078 9.676250457763675 2.0610001087188685 232 78 27
2.7973337173461914 2.0064544677734406 2.061000108718872 232 78 27
-29.05740737915039 13.974876403808597 -2.0610001087188756 232 78 27
-23.786781311035156 8.278438568115238 1.2881250381469695 232 78 27
-31.270532608032227 -8.821217536926266 2.0610001087188685 60 60 59
-27.50162696838379 10.41022109985352 -2.0610001087188756 232 78 27
-16.035032272338867 1.6699390411376984 -2.061000108718874 232 78 27
-31.455032348632812 -27.982061386108395 -2.0610001087188765 60 60 59
15.281780242919922 13.762378692626957 0.2576249837875382 232 78 27
27.924732208251953 26.03575134277344 2.0610001087188756 232 78 27
-7.001157641410828 33.67436599731445 -2.061000108718873 232 78 27
-20.863906860351562 8.197938919067386 -2.0610001087188747 232 78 27
-26.694156646728516 13.111751556396488 -2.0610001087188756 232 78 27
-20.74096965789795 -34.18015670776367 -2.0610001087188747 60 60 59
0.17398309707641602 3.10786056518555 2.061000108718872 232 78 27
-30.611221313476562 9.062563896179203 2.0610001087188685 232 78 27
-16.29237651824951 -35.69987487792969 -2.061000108718874 60 60 59
0.08682632446289196 -2.6712331771850555 -2.061000108718872 232 78 27
21.365093231201172 -13.727061271667477 1.288125038146975 232 78 27
-27.23015594482422 11.81356239318848 2.0610001087188685 232 78 27
-7.471688985824585 10.354087829589847 -2.061000108718873 232 78 27
-14.954032897949219 30.387626647949222 -2.061000108718874 232 78 27
13.410842895507812 -18.22787475585937 -2.0610001087188703 232 78 27
-13.112696170806885 2.4372901916503937 -2.061000108718874 232 78 27
15.74728012084961 -11.803154945373532 1.4169375896453875 232 78 27
-10.253782272338867 1.3687510490417512 -2.061000108718874 232 78 27
-22.080907821655273 -37.52768325805664 0.5152499675750704 60 60 59
22.03634262084961 15.984939575195316 -2.0610001087188694 232 78 27
-10.987564086914062 2.1247825622558625 -2.061000108718874 232 78 27
-8.537220239639282 32.007328033447266 2.061000108718871 232 78 27
-12.347626686096191 -17.767623901367184 -2.061000108718874 60 60 59
-3.0430951118469234 -3.826811313629147 2.061000108718872 232 78 27
-25.140594482421875 -36.38362503051758 -2.0610001087188756 60 60 59
-26.810157775878906 8.830313682556156 -1.5457501411438024 232 78 27
13.01312255859375 8.441408157348636 -0.644062519073485 232 78 27
-13.339469909667969 26.449375152587894 1.2881250381469709 232 78 27
-27.88640785217285 14.601562500000004 -1.2881252765655553 232 78 27
-10.139423370361328 0.4310483932495148 2.061000108718871 232 78 27
-6.905845046043396 30.166439056396488 -2.061000108718873 232 78 27
-10.468657493591309 26.082954406738285 -2.061000108718874 232 78 27
-25.401596069335938 12.502437591552738 -0.2576248645782506 232 78 27
-1.1047668457031237 -1.0657565593719451 -2.061000108718872 232 78 27
-9.142157554626465 21.624532699584964 -0.3864374160766615 232 78 27
-27.49715805053711 10.555438995361332 -2.0610001087188756 232 78 27
25.74698257446289 15.038784027099613 -2.0610001087188694 232 78 27
24.749874114990234 10.591032028198246 1.9321876019239455 232 78 27
-3.070782661437988 32.069313049316406 2.061000108718872 232 78 27
-9.124282598495483 10.326407432556156 -2.061000108718874 232 78 27
-23.034656524658203 -34.27299880981445 -2.0610001087188747 60 60 59
18.789249420166016 -14.328718185424801 -2.0610001087188703 232 78 27
20.171279907226562 -12.53124904632568 1.2881250381469749 232 78 27
-29.218017578125 -21.46282577514648 -2.0610001087188756 60 60 59
-14.672220230102539 8.424876213073734 1.9321876019239406 232 78 27
-34.615718841552734 -21.964000701904293 -2.0610001087188765 60 60 59
-9.480188846588135 33.66585922241211 -2.061000108718874 232 78 27
15.102310180664062 -19.744029998779293 -2.0610001087188703 232 78 27
-29.708534240722656 13.004409790039066 -2.0610001087188756 232 78 27
17.32927894592285 15.008375167846683 -1.8033750057220441 232 78 27
-14.417157173156738 6.432876586914066 2.0610001087188703 232 78 27
-8.4015793800354 28.65806579589844 -2.061000108718873 232 78 27
4.323467254638672 -4.149561256170269 2.061000108718873 232 78 27
-23.700782775878906 -22.492748260498043 -0.2576248645782502 60 60 59
-3.0931110382080074 -1.188397169113156 2.061000108718872 232 78 27
-21.723094940185547 -19.233249664306637 2.0610001087188694 60 60 59
-5.365407686680555 26.13993835449219 -8.743006318923108e-16 232 78 27
-2.8554077148437496 0.8604388236999543 2.061000108718872 232 78 27
-22.616283416748047 -17.95118713378906 2.0610001087188694 60 60 59
-24.828250885009766 -33.49990653991699 -2.0610001087188756 60 60 59
-7.338605165481567 -3.0178003311157195 2.061000108718871 232 78 27
-32.65228271484375 -32.372249603271484 -2.0610001087188765 60 60 59
1.7310762405395526 3.9414701461792023 -2.061000108718872 232 78 27
5.437029838562012 8.408500671386722 -2.061000108718872 232 78 27
-15.420533180236816 -14.972717285156246 2.0610001087188703 60 60 59
-12.647001266479492 27.324939727783207 -2.061000108718874 232 78 27
21.78809356689453 15.178937911987308 -2.0610001087188694 232 78 27
22.095592498779297 13.079938888549808 -2.0610001087188694 232 78 27
-7.871587753295898 1.3065013885498078 -2.061000108718873 232 78 27
-18.363595008850098 -16.820873260498043 -2.0610001087188747 60 60 59
-14.041282653808594 -33.561500549316406 -2.061000108718874 60 60 59
8.21390438079834 8.068250656127933 -2.061000108718871 232 78 27
-24.56197166442871 -32.847312927246094 2.0610001087188694 60 60 59
-18.959157943725586 -21.745311737060543 2.0610001087188694 60 60 59
-10.027571678161621 -0.027756690979000798 2.061000108718871 232 78 27
30.44790267944336 25.40756225585938 -2.0610001087188685 232 78 27
-8.470048427581787 11.135656356811527 -2.061000108718873 232 78 27
-29.572782516479492 -36.441749572753906 0.7728750705718956 60 60 59
19.565235137939453 -19.613921165466305 2.0610001087188747 232 78 27
-6.325407683849335 -10.088935852050778 2.061000108718871 232 78 27
-22.116846084594727 -37.528682708740234 -1.803375005722049 60 60 59
-33.733001708984375 -29.189094543457028 -2.0610001087188765 60 60 59
-6.989595174789429 10.357095718383793 -2.061000108718873 232 78 27
-20.962064743041992 -8.004155158996578 -2.0610001087188747 60 60 59
17.69095230102539 -15.944858551025387 2.061000108718874 232 78 27
-34.79390907287598 -21.5748119354248 -1.2881252765655562 60 60 59
31.531246185302734 14.53934478759766 -2.0610001087188685 232 78 27
-6.2271029949188215 8.838235855102543 -2.061000108718873 232 78 27
32.01231002807617 23.4730339050293 2.0610001087188756 232 78 27
27.770999908447266 25.107578277587894 -2.0610001087188685 232 78 27
14.387468338012695 -13.386311531066891 -2.0610001087188703 232 78 27
-11.103845119476318 -33.43981170654297 -0.12881255149841486 60 60 59
21.179264068603516 -14.898967742919918 -2.0610001087188694 232 78 27
-5.177001535892485 8.703751564025882 -2.061000108718873 232 78 27
-29.682783126831055 10.780188560485843 -2.0610001087188756 232 78 27
-11.06787633895874 33.2269401550293 -2.061000108718874 232 78 27
-14.955782890319824 28.694438934326175 -0.9016876220703147 232 78 27
-0.6589779853820787 7.0324001312255895 -2.061000108718872 232 78 27
-7.786180734634399 3.122415065765384 -2.061000108718873 232 78 27
16.294841766357422 14.196001052856449 -2.0610001087188703 232 78 27
-7.411454439163208 4.206001281738285 2.061000108718871 232 78 27
-15.790782928466797 5.336439132690433 0.2576249837875344 232 78 27
-30.532564163208008 -20.944217681884762 -2.0610001087188756 60 60 59
3.194904327392578 -2.905725359916684 -2.061000108718872 232 78 27
-12.569095134735107 36.541255950927734 0.7728750705718976 232 78 27
-22.859813690185547 -5.887904882431027 -2.0610001087188747 60 60 59
-15.906658172607422 4.977188110351566 -1.0305001735687278 232 78 27
0.3042411804199219 10.796539306640629 2.061000108718872 232 78 27
-30.234344482421875 -28.32099914550781 0.7728750705718954 60 60 59
-9.731407165527344 -30.82424926757812 2.061000108718871 60 60 59
-3.7764234542846675 9.305915832519535 2.061000108718871 232 78 27
0.08985757827758833 -4.756514370441433 2.061000108718872 232 78 27
-0.49548578262329057 8.93279838562012 2.061000108718872 232 78 27
-10.4063138961792 1.5059227943420441 -2.061000108718874 232 78 27
-9.520751476287842 2.6014862060546906 -2.061000108718874 232 78 27
-34.340314865112305 -29.81653022766113 -2.0610001087188765 60 60 59
19.808374404907227 -18.587593078613278 2.0610001087188747 232 78 27
-27.912158966064453 8.968688964843754 -1.0305001735687291 232 78 27
-5.200985729694365 7.058829307556156 -2.061000108718873 232 78 27
-11.8605637550354 -11.402060985565182 -2.061000108718874 60 60 59
-11.387188911437988 -1.8137879371643035 2.0610001087188703 232 78 27
-14.785563468933105 -12.746967315673825 2.0610001087188703 60 60 59
-4.249469995498657 -0.9071784019470184 2.061000108718871 232 78 27
-14.243813514709473 -20.024154663085934 -1.6745626926422137 60 60 59
-31.388938903808594 -23.78065490722656 2.0610001087188685 60 60 59
5.087154388427734 -1.6278424263000457 -2.061000108718872 232 78 27
-13.148907661437988 -11.73156118392944 -2.061000108718874 60 60 59
34.669342041015625 18.233264923095707 -2.0610001087188676 232 78 27
34.978843688964844 13.36818885803223 1.03050005435944 232 78 27
-8.428595304489136 32.39823532104492 2.061000108718871 232 78 27
-5.703470200300217 33.75806427001953 2.061000108718871 232 78 27
-21.908782958984375 -35.113624572753906 2.0610001087188694 60 60 59
-3.9207983016967765 6.232688903808597 -2.061000108718873 232 78 27
18.30115509033203 -19.906545639038082 2.0610001087188747 232 78 27
36.40971374511719 18.92025184631348 1.2881250381469769 232 78 27
20.198936462402344 -18.099999427795407 2.0610001087188747 232 78 27
-15.255783081054688 -0.9281864166259735 -2.061000108718874 232 78 27
-16.418407440185547 7.379938125610355 2.0610001087188703 232 78 27
28.58487319946289 25.0610466003418 2.0610001087188756 232 78 27
12.287094116210938 -10.48687362670898 -0.25762486457824574 232 78 27
-26.731033325195312 11.873439788818363 2.0610001087188685 232 78 27
14.02987289428711 -20.43912315368652 -2.0610001087188703 232 78 27
-15.161375999450684 -12.731280326843258 2.0610001087188703 60 60 59
-10.08809518814087 -12.242717742919918 -0.9016876220703138 60 60 59
-9.885907649993896 24.445938110351566 0.2576249837875353 232 78 27
3.9639358520507812 0.19297027587890936 -2.061000108718872 232 78 27
-2.1765093803405753 9.129588127136234 -2.061000108718873 232 78 27
-25.372657775878906 -17.641654968261715 2.0610001087188685 60 60 59
-17.908720016479492 -31.0828742980957 0.12881255149841064 60 60 59
-12.7791109085083 3.590641975402835 -2.061000108718874 232 78 27
-29.356531143188477 13.223876953125004 -2.0610001087188756 232 78 27
-13.974470138549805 8.404438972473148 -1.8033750057220477 232 78 27
-10.925813674926758 -16.566467285156246 1.4169375896453842 60 60 59
3.1581239700317383 -3.0194127559661834 -2.061000108718872 232 78 27
-19.66715717315674 -19.027811050415036 -2.0610001087188747 60 60 59
-32.25590705871582 13.968938827514652 2.0610001087188685 232 78 27
-16.38328266143799 3.273063659667972 1.5457500815391518 232 78 27
17.19568634033203 14.921657562255863 0.12881255149841486 232 78 27
18.235342025756836 11.502000808715824 -2.0610001087188703 232 78 27
31.585277557373047 16.04965972900391 2.0610001087188756 232 78 27
-0.2597980499267565 -6.819686412811276 -2.061000108718872 232 78 27
-22.615219116210938 -22.34993743896484 -1.803375005722049 60 60 59
18.3587646484375 -19.659858703613278 -2.0610001087188703 232 78 27
-16.31703281402588 -30.16918563842773 -0.5152499675750755 60 60 59
-28.276283264160156 14.355937957763675 2.0610001087188685 232 78 27
-34.32112503051758 -26.417091369628903 2.0610001087188676 60 60 59
1.7636861801147479 2.79731369018555 -2.061000108718872 232 78 27
-2.4864153861999503 10.595563888549808 -2.061000108718873 232 78 27
-10.213189125061035 33.71864318847656 2.061000108718871 232 78 27
14.937122344970703 -19.371498107910153 -2.0610001087188703 232 78 27
18.392093658447266 -11.734998703002926 -0.6440625190734841 232 78 27
-20.85462760925293 -18.02718639373779 -2.0610001087188747 60 60 59
4.260747909545898 7.502313613891605 -2.061000108718872 232 78 27
23.19131088256836 19.260845184326175 -2.0610001087188694 232 78 27
-15.264954566955566 5.591641426086429 -2.061000108718874 232 78 27
-14.703376770019531 5.110954284667972 2.0610001087188703 232 78 27
-33.57928466796875 -10.444810867309567 -0.5152499675750777 60 60 59
14.411186218261719 -15.770952224731442 2.061000108718874 232 78 27
31.651371002197266 16.349250793457035 2.0610001087188756 232 78 27
-11.766704082489014 34.454925537109375 -2.061000108718874 232 78 27
-28.450159072875977 -35.87143898010254 -2.0610001087188756 60 60 59
25.14840316772461 18.921688079833988 2.0610001087188747 232 78 27
-8.77922010421753 24.686061859130863 -2.061000108718873 232 78 27
-9.217407703399658 -5.083998799324032 0.7728750705718981 232 78 27
8.64906120300293 -7.686280250549313 -1.674562692642211 232 78 27
-35.797157287597656 -30.815937042236325 -1.4169375896453902 60 60 59
29.592700958251953 24.588657379150394 -2.0610001087188685 232 78 27
-1.6340093612670894 1.3841500282287629 2.061000108718872 232 78 27
-14.711908340454102 34.20681381225586 -1.288125276565554 232 78 27
-13.51082992553711 7.4012660980224645 2.0610001087188703 232 78 27
-15.356782913208008 -12.917186737060543 -2.061000108718874 60 60 59
-3.9531891345977774 32.41775131225586 -2.061000108718873 232 78 27
0.027592658996582475 -9.259811401367184 1.0305000543594358 232 78 27
-6.477095127105713 23.52212524414063 2.061000108718871 232 78 27
-13.036266326904297 33.39921569824219 -2.061000108718874 232 78 27
-15.774282455444336 5.390438079833988 1.8033750951290108 232 78 27
-10.888407707214355 -11.55368614196777 2.0610001087188703 60 60 59
30.664966583251953 20.425407409667972 2.0610001087188756 232 78 27
11.059747695922852 -9.608436584472653 1.9321876019239437 232 78 27
25.655061721801758 17.503940582275394 2.0610001087188756 232 78 27
16.243873596191406 9.809627532958988 1.9321876019239443 232 78 27
-6.005532681941986 20.576564788818363 0.6440625190734854 232 78 27
-9.949313640594482 25.887437820434574 2.061000108718871 232 78 27
-10.824345111846924 -33.13780975341797 0.901687622070311 60 60 59
21.01018524169922 13.998720169067386 -2.0610001087188694 232 78 27
29.492656707763672 17.989406585693363 2.0610001087188756 232 78 27
28.799297332763672 13.34799957275391 -2.0610001087188685 232 78 27
17.320762634277344 -19.15426445007324 2.061000108718874 232 78 27
-20.993345260620117 -6.822248935699459 -2.0610001087188747 60 60 59
14.151309967041016 -18.508358955383297 2.061000108718874 232 78 27
-6.330267071723938 5.956462860107425 2.061000108718871 232 78 27
-8.174454689025879 30.239280700683597 2.061000108718871 232 78 27
10.424280166625977 10.005876541137699 2.061000108718873 232 78 27
21.606779098510742 12.579938888549808 -2.0610001087188694 232 78 27
-8.56821084022522 -3.7083710432052577 2.061000108718871 232 78 27
-6.770204544067383 34.2839241027832 2.061000108718871 232 78 27
20.419029235839844 15.06293869018555 -2.0610001087188694 232 78 27
-14.25037670135498 -1.5004363059997528 0.6440625190734843 232 78 27
-19.942251205444336 -19.98468494415283 -2.0610001087188747 60 60 59
12.874092102050781 -19.500310897827145 -1.0305001735687243 232 78 27
-10.258032321929932 -10.743873596191403 -0.7728750705719007 60 60 59
12.093997955322266 -16.141342163085934 1.1593125462532057 232 78 27
-10.148032665252686 24.941562652587894 -0.5152499675750746 232 78 27
-25.72372055053711 8.881126403808597 -2.0610001087188756 232 78 27
-28.134000778198242 9.952063560485843 2.0610001087188685 232 78 27
1.0043964385986346 1.2928762435913117 -2.061000108718872 232 78 27
-9.311907529830933 9.146595001220707 2.061000108718871 232 78 27
-31.363689422607422 -31.29931259155273 2.0610001087188685 60 60 59
-3.513845205307006 2.8533921241760285 -2.061000108718873 232 78 27
28.516765594482422 22.344360351562504 -2.0610001087188685 232 78 27
-16.28953266143799 -19.643342971801754 2.0610001087188703 60 60 59
30.98929214477539 21.488172531127933 -2.0610001087188685 232 78 27
-12.898157596588135 7.989188194274906 2.0610001087188703 232 78 27
-19.304906845092773 -6.788186311721798 -2.0610001087188747 60 60 59
-8.032204389572144 5.435017585754398 2.061000108718871 232 78 27
-5.782079517841337 30.173313140869144 -2.061000108718873 232 78 27
-13.583282470703125 -18.460718154907223 -2.061000108718874 60 60 59
-32.86434555053711 -31.844404220581055 -2.0610001087188765 60 60 59
24.87009048461914 17.613967895507816 2.0610001087188747 232 78 27
29.85073471069336 15.233734130859379 2.0610001087188756 232 78 27
-34.34040832519531 -30.858528137207028 2.0610001087188676 60 60 59
-15.232844352722168 6.365877151489261 -2.061000108718874 232 78 27
5.009622573852539 -3.5974675416946376 2.061000108718873 232 78 27
36.007442474365234 19.11361122131348 2.0610001087188765 232 78 27
-30.464656829833984 -20.63130950927734 2.0610001087188685 60 60 59
-9.490283012390137 11.675937652587894 2.061000108718871 232 78 27
26.504592895507812 25.20125007629395 2.0610001087188756 232 78 27
-30.358657836914062 -27.2337474822998 -0.7728750705719034 60 60 59
-12.70262622833252 34.15940856933594 -2.061000108718874 232 78 27
9.434280395507812 -12.283373832702633 -0.7728750705718985 232 78 27
0.49856090545654297 -3.866155028343197 2.061000108718872 232 78 27
-2.9209077358245845 30.19093704223633 1.2881250381469722 232 78 27
-23.863346099853516 -32.0359992980957 0.2576249837875335 60 60 59
-0.3289079666137682 -7.898311138153073 -2.061000108718872 232 78 27
-8.189501285552979 5.609970092773441 -2.061000108718873 232 78 27
29.93262481689453 24.907283782958988 -2.0610001087188685 232 78 27
-13.765344619750977 -17.365561485290524 2.0610001087188703 60 60 59
-2.8369076251983634 31.284938812255863 -4.3021142204224816e-16 232 78 27
-7.846157550811768 13.023439407348636 -2.061000108718873 232 78 27
-14.796422958374023 29.8097038269043 2.0610001087188703 232 78 27
25.68859100341797 25.92843818664551 0.12881255149841597 232 78 27
-0.03382968902587846 0.5137825012207062 2.061000108718872 232 78 27
-7.886720180511475 24.650188446044925 2.061000108718871 232 78 27
-3.8933920860290523 7.60786056518555 2.061000108718871 232 78 27
20.133060455322266 11.128812789916996 -1.4169375896453835 232 78 27
5.982342720031738 9.468906402587894 -0.12881255149841264 232 78 27
-36.260406494140625 -29.173936843872067 1.5457500815391494 60 60 59
-14.887533187866211 -4.8672487735748255 0.2576249837875346 60 60 59
-6.418118536472319 8.763985633850101 -2.061000108718873 232 78 27
3.244171142578125 0.9218525886535676 2.061000108718872 232 78 27
-5.396017000079155 -4.795873761177059 2.061000108718871 232 78 27
32.4262809753418 12.163125991821293 -2.0610001087188685 232 78 27
-15.760720252990723 5.436376571655277 -1.288125276565554 232 78 27
-9.02281403541565 28.848125457763675 2.061000108718871 232 78 27
-19.53956413269043 -17.745122909545895 -2.0610001087188747 60 60 59
-2.315110683441161 2.70746994018555 -2.061000108718873 232 78 27
30.33224868774414 10.596735000610355 2.0610001087188756 232 78 27
27.92718505859375 11.256565093994144 2.0610001087188756 232 78 27
-16.24053192138672 3.9000635147094758 0.515249967575071 232 78 27
-29.97290802001953 -11.227061271667477 0.7728750705718954 60 60 59
27.38259506225586 24.479595184326175 2.0610001087188756 232 78 27
-18.301782608032227 -20.86618614196777 2.0610001087188694 60 60 59
-1.5074079036712638 -4.439061257056888 -2.061000108718872 232 78 27
-27.58859634399414 9.880250930786136 2.0610001087188685 232 78 27
16.57284164428711 -15.55831146240234 2.061000108718874 232 78 27
-8.68965768814087 11.714860916137699 -2.061000108718873 232 78 27
0.18809223175048828 -3.510561287403103 2.061000108718872 232 78 27
33.41184616088867 15.227422714233402 2.0610001087188765 232 78 27
2.0611233711242694 2.9710955619812043 -2.061000108718872 232 78 27
-1.561007976531982 1.3213348388671906 2.061000108718872 232 78 27
21.23777961730957 20.479438781738285 2.0610001087188747 232 78 27
-17.26300048828125 -6.580186367034909 -2.0610001087188747 60 60 59
-12.25690746307373 10.096939086914066 -0.25762486457824885 232 78 27
-7.190907716751099 9.964314460754398 -2.061000108718873 232 78 27
-4.125454664230347 6.814924240112308 -2.061000108718873 232 78 27
-14.735532760620117 -28.634437561035153 -1.545750141143801 60 60 59
6.820529937744141 5.132938385009769 0.2576249837875373 232 78 27
-28.095439910888672 10.217782974243168 2.0610001087188685 232 78 27
-5.274438962340353 9.795532226562504 -2.061000108718873 232 78 27
-4.068501353263855 -6.3877799510955775 -2.061000108718873 232 78 27
-0.6641263961791979 -8.261170387268063 -2.061000108718872 232 78 27
-21.929908752441406 -20.849559783935543 2.0610001087188694 60 60 59
21.279842376708984 -13.6115608215332 -0.7728750705718972 232 78 27
-9.798954963684082 4.48118877410889 2.061000108718871 232 78 27
-3.7028608322143546 6.948000907897953 -2.061000108718873 232 78 27
-9.247173309326172 7.564720153808597 2.061000108718871 232 78 27
33.459041595458984 17.058765411376957 -2.0610001087188685 232 78 27
-16.149032592773438 -12.131186485290524 -1.545750141143801 60 60 59
16.00865364074707 -16.354701995849606 2.061000108718874 232 78 27
-8.81255578994751 2.796915054321292 -2.061000108718873 232 78 27
-20.042532920837402 -37.390933990478516 -1.8033750057220486 60 60 59
-24.946533203125 -17.749437332153317 2.0610001087188694 60 60 59
13.23556137084961 -15.17449855804443 -2.0610001087188703 232 78 27
-32.88990783691406 11.48593902587891 2.0610001087188676 232 78 27
5.865586280822754 4.205785751342777 2.061000108718873 232 78 27
-23.504594802856445 11.507876396179203 0.2576249837875335 232 78 27
-2.8615796566009517 9.403001785278324 2.061000108718872 232 78 27
6.204592704772949 9.54700088500977 -0.2576248645782466 232 78 27
-28.303783416748047 -6.164842367172238 2.0610001087188685 60 60 59
-14.981595039367676 33.64631271362305 -1.8033750057220481 232 78 27
3.277552604675293 -0.5913736820220916 2.061000108718872 232 78 27
-14.85540771484375 28.73756790161133 -2.061000108718874 232 78 27
-7.807204723358154 -6.180451869964596 -2.061000108718873 232 78 27
-11.984329223632812 2.5399465560913117 -2.061000108718874 232 78 27
-4.996149837970734 -1.7273578643798797 2.061000108718871 232 78 27
19.086811065673828 -19.91459274291992 2.0610001087188747 232 78 27
20.40909194946289 20.78893852233887 -1.5457501411437966 232 78 27
-12.861220359802246 -16.55415534973144 2.0610001087188703 60 60 59
-2.9938919544219966 -4.3260143697261775 2.061000108718872 232 78 27
1.9008417129516602 -0.08571767807006525 2.061000108718872 232 78 27
-6.209845721721649 -2.709061861038205 2.061000108718871 232 78 27
3.3220062255859375 3.4291343688964875 2.061000108718872 232 78 27
-1.400525093078612 1.9106426239013703 -2.061000108718872 232 78 27
0.2874984741210955 -4.704904973506924 -2.061000108718872 232 78 27
5.885904312133789 1.8988447189331086 2.061000108718873 232 78 27
-3.576384305953979 5.3957118988037145 2.061000108718872 232 78 27
-10.113032817840576 -11.751686096191403 -0.2576248645782484 60 60 59
-20.4697208404541 -6.219623923301693 2.0610001087188694 60 60 59
-6.494743585586548 3.901275634765628 2.061000108718871 232 78 27
18.32809066772461 11.254375457763675 2.0610001087188747 232 78 27
-25.708969116210938 -22.869998931884762 0.2576249837875333 60 60 59
-11.673876285552979 2.3237199783325226 -2.061000108718874 232 78 27
5.139495849609375 3.7529258728027375 2.061000108718873 232 78 27
-12.282469749450684 30.932624816894535 -2.061000108718874 232 78 27
21.14968490600586 14.435531616210941 -2.0610001087188694 232 78 27
-30.63418960571289 -30.99299812316894 2.0610001087188685 60 60 59
27.392139434814453 18.49740600585938 -2.0610001087188685 232 78 27
-17.686845779418945 -21.42574882507324 0.2576249837875342 60 60 59
-8.971595287322998 23.6358757019043 2.061000108718871 232 78 27
-35.903377532958984 -23.758687973022457 1.416937589645381 60 60 59
-30.39672088623047 -6.387217521667477 -2.0610001087188756 60 60 59
-3.2048454284667964 29.074687957763675 0.25762498378753595 232 78 27
13.981529235839844 -13.089060783386227 -2.0610001087188703 232 78 27
-13.587719917297363 -1.7613735198974578 1.2881250381469709 232 78 27
-13.806955337524414 33.828704833984375 2.0610001087188703 232 78 27
-5.022001475095749 30.939250946044925 2.061000108718871 232 78 27
-31.341094970703125 11.930625915527347 2.0610001087188685 232 78 27
-5.528376437723637 27.04340744018555 2.061000108718871 232 78 27
-7.423720121383667 28.30617141723633 -2.061000108718873 232 78 27
-5.1040951907634735 28.762065887451175 2.061000108718871 232 78 27
34.96152877807617 22.541938781738285 -2.0610001087188676 232 78 27
-7.2237513065338135 3.1730327606201203 2.061000108718871 232 78 27
-14.027266502380371 4.3833217620849645 -2.061000108718874 232 78 27
-3.198220252990722 12.2067985534668 2.061000108718872 232 78 27
-5.79318630695343 -0.4618220329284637 2.061000108718871 232 78 27
-23.911094665527344 8.30468845367432 -0.6440625190734894 232 78 27
32.033504486083984 11.209180831909183 -2.0610001087188685 232 78 27
-27.718658447265625 13.919189453125004 2.0610001087188685 232 78 27
-14.435470581054688 -12.210592746734616 -2.061000108718874 60 60 59
-6.669751405715942 -4.6937956213951075 2.061000108718871 232 78 27
18.664466857910156 -21.638248443603512 0.2576249837875386 232 78 27
-6.315970182418823 24.44206237792969 -0.25762486457824796 232 78 27
-9.084595203399658 -30.530374526977536 1.674562573432921 60 60 59
-0.8400406837463366 -1.4070456027984588 -2.061000108718872 232 78 27
-5.772782742977141 6.600954055786136 -2.061000108718873 232 78 27
-3.9514231681823726 -4.966889381408688 2.061000108718871 232 78 27
22.947092056274414 11.704938888549808 -0.2576248645782444 232 78 27
-21.36684513092041 -36.28296661376953 -2.0610001087188747 60 60 59
-31.02096939086914 -29.46562576293945 2.0610001087188685 60 60 59
-9.70640754699707 7.9751892089843786 -2.061000108718874 232 78 27
26.879718780517578 10.118939399719242 -2.0610001087188694 232 78 27
-3.8931734561920157 -0.37175655364989924 -2.061000108718873 232 78 27
-14.697407722473145 32.98569107055664 2.0610001087188703 232 78 27
-21.062844276428223 -32.827903747558594 -2.0610001087188747 60 60 59
31.178546905517578 16.721578598022464 2.0610001087188756 232 78 27
0.4940624237060547 1.0178003311157258 2.061000108718872 232 78 27
14.156639099121094 -15.640153884887692 -2.0610001087188703 232 78 27
-18.303627014160156 -19.949466705322262 -2.0610001087188747 60 60 59
33.356407165527344 24.461563110351566 0.2576249837875404 232 78 27
23.26187515258789 22.97287750244141 2.0610001087188747 232 78 27
21.650028228759766 13.87265777587891 2.0610001087188747 232 78 27
35.855045318603516 15.562969207763675 -2.0610001087188676 232 78 27
3.205310821533203 5.316751480102543 -2.061000108718872 232 78 27
18.490638732910156 -14.638296127319332 -2.0610001087188703 232 78 27
24.331623077392578 18.23654937744141 2.0610001087188747 232 78 27
-27.318374633789062 13.623001098632816 2.0610001087188685 232 78 27
-11.336501121520996 10.75865745544434 -0.12881255149841486 232 78 27
-28.3477840423584 -23.88618659973144 0.5152499675750695 60 60 59
-27.24490737915039 -31.338935852050778 1.288125038146969 60 60 59
-16.255282402038574 -0.8996860980987518 -1.288125276565554 232 78 27
13.920404434204102 -15.4656229019165 -2.0610001087188703 232 78 27
34.77096939086914 17.345188140869144 2.0610001087188765 232 78 27
21.519168853759766 -16.602952003479 -2.0610001087188694 232 78 27
36.2022819519043 17.587219238281254 2.0610001087188765 232 78 27
-1.1058368682861315 0.3200635910034211 -2.061000108718872 232 78 27
-13.480594635009766 -13.041873931884762 2.0610001087188703 60 60 59
-20.397032737731934 -6.736436367034909 2.0610001087188694 60 60 59
-6.034892141819 3.3969073295593293 2.061000108718871 232 78 27
-29.156782150268555 12.443000793457035 -2.0610001087188756 232 78 27
-18.782407760620117 -35.79706001281738 -2.0610001087188747 60 60 59
5.411748886108398 -3.1285611391067474 -2.061000108718872 232 78 27
-34.334720611572266 -26.75243759155273 2.0610001087188676 60 60 59
-7.827149391174316 3.752509117126468 -2.061000108718873 232 78 27
-21.2801570892334 10.511781692504886 0.38643741607665727 232 78 27
-0.6101884841918932 11.102689743041996 -2.061000108718872 232 78 27
29.771595001220703 11.581939697265629 2.0610001087188756 232 78 27
26.641719818115234 9.982282638549808 0.1288125514984162 232 78 27
-33.65090751647949 -20.58909225463867 2.0610001087188676 60 60 59
-21.39565658569336 -37.48530960083008 0.5152499675750704 60 60 59
15.382606506347656 -18.932014465332028 2.061000108718874 232 78 27
-12.786422729492188 8.068204879760746 2.0610001087188703 232 78 27
4.410482406616211 -3.4584518074989288 2.061000108718873 232 78 27
-26.572284698486328 -9.05562353134155 0.901687622070309 60 60 59
0.6472177505493164 -2.65804576873779 2.061000108718872 232 78 27
22.781841278076172 11.804187774658207 -0.5152499675750706 232 78 27
-8.759899616241455 2.042259216308597 -2.061000108718873 232 78 27
-22.760908126831055 8.941375732421879 -2.0610001087188747 232 78 27
-9.474658012390137 29.185935974121097 2.061000108718871 232 78 27
-19.689220428466797 -17.429998397827145 2.0610001087188694 60 60 59
-11.51665735244751 9.10375022888184 2.0610001087188703 232 78 27
-27.500282287597656 -37.04681396484375 -1.5457501411438024 60 60 59
1.9260454177856445 8.464328765869144 2.061000108718872 232 78 27
-5.267595171928404 6.499469757080082 -2.061000108718873 232 78 27
-2.102860689163207 -0.6595535278320281 -2.061000108718873 232 78 27
-33.90643882751465 -22.005905151367184 -2.0610001087188765 60 60 59
-12.375907897949219 -8.170092582702633 2.0610001087188703 60 60 59
-6.075384140014647 1.028306007385257 -2.061000108718873 232 78 27
-24.237659454345703 -22.570560455322262 -1.0305001735687287 60 60 59
-0.8114385604858394 11.799907684326175 -0.9016876220703129 232 78 27
6.207967758178711 -1.2325611114501922 1.5457500815391545 232 78 27
-30.757783889770508 -11.900748729705807 -0.7728750705719034 60 60 59
2.4952478408813494 3.267470359802249 -2.061000108718872 232 78 27
-20.106969833374023 10.048938751220707 -0.25762486457824973 232 78 27
-8.000657796859741 15.437065124511722 2.061000108718871 232 78 27
6.430091857910156 0.9195637702941926 -0.2576248645782466 232 78 27
-27.562971115112305 -33.636844635009766 2.0610001087188685 60 60 59
-4.222485780715942 8.615680694580082 2.061000108718871 232 78 27
19.17702865600586 -17.04309272766113 2.0610001087188747 232 78 27
0.35066986083984375 1.7756891250610383 2.061000108718872 232 78 27
18.379920959472656 -16.98831176757812 2.0610001087188747 232 78 27
-33.21821975708008 -32.582061767578125 -2.0610001087188765 60 60 59
-30.544815063476562 10.328470230102543 2.0610001087188685 232 78 27
31.060592651367188 10.347625732421879 -0.2576248645782435 232 78 27
-9.795095443725586 24.13694000244141 1.2881250381469713 232 78 27
-28.704750061035156 -23.884717941284176 2.0610001087188685 60 60 59
-4.801907658576965 -6.888561248779293 2.061000108718871 232 78 27
22.770980834960938 16.96403312683106 -2.0610001087188694 232 78 27
-8.671157836914062 19.268751144409183 1.8033750951290117 232 78 27
19.476764678955078 -14.667858123779293 -2.0610001087188703 232 78 27
23.077903747558594 11.61093902587891 -1.8033750057220432 232 78 27
32.33333969116211 11.539813995361332 2.0610001087188756 232 78 27
-32.07752990722656 -11.222123622894284 -0.6440625190734903 60 60 59
19.69178009033203 11.302813529968265 2.0610001087188747 232 78 27
-12.435595035552979 -14.72802925109863 2.0610001087188703 60 60 59
13.135719299316406 -19.71218681335449 -2.0610001087188703 232 78 27
32.28586959838867 15.627080917358402 2.0610001087188756 232 78 27
12.643653869628906 -14.727123260498043 2.061000108718874 232 78 27
-16.687127113342285 -10.744498252868649 0.6440625190734841 60 60 59
-10.514657497406006 32.02903366088867 2.061000108718871 232 78 27
-12.656736373901367 1.6521573066711457 2.0610001087188703 232 78 27
-0.24639987945556596 1.938868522644046 2.061000108718872 232 78 27
34.60123062133789 20.46779823303223 -2.0610001087188676 232 78 27
14.933513641357422 -15.246419906616207 -2.0610001087188703 232 78 27
18.733966827392578 -13.179623603820797 2.0610001087188747 232 78 27
-6.265413761138916 -0.5899786949157684 2.061000108718871 232 78 27
20.250293731689453 -16.708576202392575 -2.0610001087188694 232 78 27
21.706436157226562 12.08343887329102 2.0610001087188747 232 78 27
3.619248390197754 7.424095153808597 2.061000108718872 232 78 27
-12.392220497131348 -1.4151396751403778 2.0610001087188703 232 78 27
34.12606430053711 21.66069030761719 2.0610001087188765 232 78 27
4.490467071533203 -2.6300612688064544 2.061000108718873 232 78 27
-13.729376792907715 7.260344505310062 2.0610001087188703 232 78 27
-2.874032497406005 31.687690734863285 -1.5457501411437993 232 78 27
19.212139129638672 -18.76337337493896 -2.0610001087188703 232 78 27
-7.444821834564209 10.033157348632816 -2.061000108718873 232 78 27
-24.44515609741211 -7.823436260223385 -2.0610001087188756 60 60 59
-34.07234573364258 -10.020248413085934 -2.0610001087188765 60 60 59
-5.7011497616767866 1.0309076309204133 -2.061000108718873 232 78 27
5.197842597961426 8.040438652038578 -2.061000108718872 232 78 27
-32.24115753173828 -11.13768625259399 1.8033750951290088 60 60 59
-16.428689002990723 -35.3651237487793 2.0610001087188703 60 60 59
-7.97440767288208 -7.825561285018917 -1.3183898417423734e-15 232 78 27
-31.01775360107422 -8.721123695373532 2.0610001087188685 60 60 59
-28.953969955444336 -6.440779924392697 2.0610001087188685 60 60 59
23.50237274169922 15.373985290527347 -2.0610001087188694 232 78 27
-10.571595191955566 -15.699717521667477 -1.416937589645387 60 60 59
-26.218408584594727 -5.554154992103573 -2.0610001087188756 60 60 59
-21.19540786743164 -5.795061349868771 2.0610001087188694 60 60 59
-14.741632461547852 -4.94699743390083 1.2885001301765422 60 60 59
-6.082157731056212 14.631938934326175 -2.061000108718873 232 78 27
-15.382533073425293 2.880235195159915 2.0610001087188703 232 78 27
-16.31375026702881 3.5990943908691437 -0.9016876220703147 232 78 27
-31.290721893310547 -27.677310943603512 2.0610001087188685 60 60 59
-13.386907577514648 29.7738151550293 -2.061000108718874 232 78 27
25.492341995239258 25.856250762939457 0.9016876220703154 232 78 27
-8.00382947921753 30.986110687255863 -2.061000108718873 232 78 27
-9.316720247268677 29.13068771362305 2.061000108718871 232 78 27
19.550968170166016 16.132562637329105 -2.0610001087188703 232 78 27
34.352012634277344 13.633829116821293 -2.0610001087188685 232 78 27
5.487733840942383 3.488614559173587 2.061000108718873 232 78 27
-5.629790753126144 -0.7407801151275604 2.061000108718871 232 78 27
21.47421646118164 16.376064300537113 -2.0610001087188694 232 78 27
-18.434532165527344 -34.102874755859375 2.0610001087188694 60 60 59
8.421467781066895 6.082344055175785 1.9321876019239435 232 78 27
-28.727783203125 9.515970230102543 -2.0610001087188756 232 78 27
36.42428207397461 17.69200134277344 0.25762498378754084 232 78 27
-29.973655700683594 -20.1037483215332 -2.0610001087188756 60 60 59
-10.900954246520996 25.877748489379886 -2.061000108718874 232 78 27
23.896921157836914 14.887485504150394 -2.0610001087188694 232 78 27
-13.397064208984375 -6.512561321258541 -2.061000108718874 60 60 59
-11.909016609191895 28.864360809326175 -2.061000108718874 232 78 27
-35.93012619018555 -29.781967163085934 2.0610001087188676 60 60 59
-17.960906982421875 -3.6755612492561305 -2.2065682614424986e-15 60 60 59
-31.836687088012695 -31.88249969482422 -2.0610001087188765 60 60 59
-5.560095191001892 17.76762390136719 -0.25762486457824796 232 78 27
-16.65340805053711 -21.096061706542965 1.5457500815391518 60 60 59
36.272403717041016 19.625625610351566 -1.2881252765655478 232 78 27
2.454679489135742 2.157902240753177 2.061000108718872 232 78 27
-22.08165740966797 -17.875499725341793 2.0610001087188694 60 60 59
-25.35784339904785 -31.861560821533203 -1.4169375896453889 60 60 59
-7.71992301940918 5.888767242431644 2.061000108718871 232 78 27
-17.07190704345703 -3.9410299658775294 -0.9016876220703147 60 60 59
-3.08350133895874 9.346118927001957 2.061000108718872 232 78 27
-29.26396942138672 -36.54946517944336 -1.932187557220463 60 60 59
-5.39228268712759 26.119438171386722 0.5152499675750724 232 78 27
-7.859001398086548 31.359859466552738 2.061000108718871 232 78 27
-1.247470378875732 -7.651373863220211 2.061000108718872 232 78 27
-23.32512664794922 -22.44287300109863 0.12881255149840998 60 60 59
-13.463970184326172 31.753093719482425 -2.061000108718874 232 78 27
-15.959095001220703 5.847063064575199 2.0610001087188703 232 78 27
22.33321762084961 18.098314285278324 -2.0610001087188694 232 78 27
12.493873596191406 -16.59162330627441 2.061000108718874 232 78 27
-4.520938873291016 13.556846618652347 -1.6745626926422128 232 78 27
-32.45009422302246 -10.866873741149899 -2.0610001087188765 60 60 59
3.58306884765625 2.6949844360351594 2.061000108718872 232 78 27
3.9550771713256836 -3.4945768713951075 2.061000108718873 232 78 27
30.404048919677734 15.309000015258793 2.0610001087188756 232 78 27
20.297000885009766 -14.70268630981445 -2.0610001087188694 232 78 27
-30.160564422607422 12.175720214843754 -2.0610001087188756 232 78 27
-28.394376754760742 -23.913093566894528 1.1593125462532008 60 60 59
-7.237782716751099 5.783596038818363 -2.061000108718873 232 78 27
16.809247970581055 -15.527654647827145 -2.0610001087188703 232 78 27
2.393498420715334 8.626766204833988 -2.061000108718872 232 78 27
29.74221420288086 16.458065032958988 -2.0610001087188685 232 78 27
-20.371907234191895 10.144938468933109 1.5457500815391514 232 78 27
-7.976954460144043 -0.8019831180572479 2.061000108718871 232 78 27
-27.598533630371094 11.027751922607425 2.0610001087188685 232 78 27
7.948592185974121 -10.833811283111569 1.0305000543594367 232 78 27
18.285717010498047 -21.07999801635742 2.0610001087188747 232 78 27
-30.539031982421875 -11.969061374664303 -1.5457501411438028 60 60 59
-15.084407806396484 6.950438499450687 -2.061000108718874 232 78 27
-22.15768814086914 7.869564056396488 1.9321876019239397 232 78 27
-4.758157730102537 5.291836738586429 -2.061000108718873 232 78 27
23.515684127807617 15.19436073303223 -2.0610001087188694 232 78 27
13.42584228515625 12.749565124511722 -1.8033750057220446 232 78 27
19.969655990600586 -17.47796821594238 -2.0610001087188694 232 78 27
-12.414063930511475 29.45056533813477 2.0610001087188703 232 78 27
13.739982604980469 -15.437232971191403 -2.0610001087188703 232 78 27
-5.893423318862915 36.526546478271484 2.061000108718871 232 78 27
2.0611238479614276 6.261095046997074 -2.061000108718872 232 78 27
-4.4382124543189985 7.826734542846683 -2.061000108718873 232 78 27
-4.938563913106918 33.29487609863281 2.061000108718871 232 78 27
14.122217178344727 -12.25318622589111 2.061000108718874 232 78 27
-6.738063812255859 33.97804641723633 -2.061000108718873 232 78 27
-9.123845338821411 -2.778936266899106 2.061000108718871 232 78 27
-5.074532687664032 29.657844543457035 2.061000108718871 232 78 27
22.04534149169922 15.8929557800293 -2.0610001087188694 232 78 27
14.883092880249023 -21.318061828613278 0.772875070571901 232 78 27
22.089344024658203 -15.221748352050778 -0.7728750705718967 232 78 27
30.928714752197266 23.595394134521488 -2.0610001087188685 232 78 27
32.82121658325195 18.579141616821293 -2.0610001087188685 232 78 27
-14.309720039367676 -13.695310592651364 2.0610001087188703 60 60 59
-33.6397819519043 -20.326530456542965 0.6440625190734819 60 60 59
-31.71015739440918 14.500000000000004 -0.25762486457825107 232 78 27
2.5400919914245605 5.039173126220707 2.061000108718872 232 78 27
20.362342834472656 -16.10081100463867 2.0610001087188747 232 78 27
-13.840845108032227 -27.138187408447262 0.2576249837875346 60 60 59
36.14167022705078 17.473455429077152 2.0610001087188765 232 78 27
-4.811407744884489 31.204936981201175 -2.061000108718873 232 78 27
-18.206907272338867 -8.595811367034909 -2.0610001087188747 60 60 59
-19.914939880371094 -17.120122909545895 -2.0610001087188747 60 60 59
-35.44165802001953 -31.62281036376953 -4.427014310692812e-15 60 60 59
-14.764688491821289 28.495723724365238 -2.061000108718874 232 78 27
-2.1682903766632076 1.1399469375610383 2.061000108718872 232 78 27
-6.650579571723938 36.1047477722168 2.061000108718871 232 78 27
-13.361032485961914 26.603767395019535 -2.061000108718874 232 78 27
13.114593505859375 -17.554998397827145 -2.0610001087188703 232 78 27
6.155529975891113 -6.64606142044067 -2.061000108718871 232 78 27
30.678592681884766 10.37775039672852 -2.0610001087188685 232 78 27
-22.46662712097168 -35.64906311035156 -2.0610001087188747 60 60 59
-5.268118649721144 8.844071388244632 -2.061000108718873 232 78 27
18.598560333251953 14.209251403808597 -2.0610001087188703 232 78 27
-10.68397045135498 26.742797851562504 -2.061000108718874 232 78 27
31.652278900146484 22.60318756103516 -2.0610001087188685 232 78 27
23.56281280517578 17.942283630371097 2.0610001087188747 232 78 27
-13.31440782546997 -8.160530090332028 -2.061000108718874 60 60 59
-28.749034881591797 -22.46193695068359 -2.0610001087188756 60 60 59
-3.103524923324584 10.914571762084964 -2.061000108718873 232 78 27
-8.869485855102539 28.41738891601563 2.061000108718871 232 78 27
5.269990921020508 3.2580170631408722 2.061000108718873 232 78 27
2.8599042892456055 -2.836561322212216 2.061000108718872 232 78 27
34.03609085083008 12.22493934631348 4.010680676458378e-15 232 78 27
-8.078407764434814 13.431564331054691 0.7728750705718983 232 78 27
0.8581466674804705 3.984743118286136 -2.061000108718872 232 78 27
34.412593841552734 18.725063323974613 2.0610001087188765 232 78 27
20.341093063354492 -12.657061576843258 -1.2881252765655495 232 78 27
3.960092544555664 -3.94187372922897 -2.061000108718872 232 78 27
4.814638137817383 2.830664634704593 2.061000108718873 232 78 27
6.138779640197754 -1.535405158996579 -1.1593127250671382 232 78 27
17.165733337402344 -20.002872467041012 -2.0610001087188703 232 78 27
-1.4079861640930162 -5.1247643232345546 -2.061000108718872 232 78 27
24.161155700683594 10.8923454284668 1.674562573432925 232 78 27
-22.864906311035156 -36.6800651550293 2.0610001087188694 60 60 59
-24.06490707397461 9.923938751220707 -2.0610001087188756 232 78 27
-26.949031829833984 -31.453372955322262 0.7728750705718959 60 60 59
-32.39265823364258 -30.517185211181637 2.0610001087188685 60 60 59
-11.387930870056152 -1.9994988441467254 -2.061000108718874 232 78 27
8.211341857910156 9.544501304626468 -2.061000108718871 232 78 27
18.009891510009766 -14.405779838562008 -2.0610001087188703 232 78 27
31.652141571044922 15.767471313476566 2.0610001087188756 232 78 27
3.920248031616211 -0.07512378692626642 2.061000108718873 232 78 27
-30.617656707763672 -29.81062316894531 -2.0610001087188756 60 60 59
-33.37728309631348 -29.704061508178707 2.0610001087188676 60 60 59
-8.67153263092041 32.809688568115234 2.061000108718871 232 78 27
-15.269071578979492 5.209079742431644 -2.061000108718874 232 78 27
-6.65632963180542 3.1354541778564484 2.061000108718871 232 78 27
7.864341735839844 -10.754436492919918 0.5152499675750739 232 78 27
-5.918282687664032 35.13753128051758 2.061000108718871 232 78 27
-3.4700875282287593 4.908664703369144 2.061000108718872 232 78 27
20.153406143188477 -20.92590522766113 -1.1593127250671365 232 78 27
-12.22984504699707 30.921436309814457 -2.061000108718874 232 78 27
1.7224726676940918 1.7178163528442414 2.061000108718872 232 78 27
3.6730918884277344 -2.551061153411862 -2.061000108718872 232 78 27
-27.927534103393555 -22.451124191284176 2.0610001087188685 60 60 59
-1.7276611328124996 -0.2010679244995086 2.061000108718872 232 78 27
20.890357971191406 17.16953277587891 -2.0610001087188694 232 78 27
-15.24412727355957 -15.94531154632568 2.0610001087188703 60 60 59
-3.3274235725402823 6.996985435485843 -2.061000108718873 232 78 27
-6.1069077253341675 25.65493774414063 1.0305000543594351 232 78 27
-24.936908721923828 -35.72506332397461 -2.0610001087188756 60 60 59
-21.495906829833984 -32.005062103271484 1.5457500815391512 60 60 59
